-85.7274189582 29.5183175634 236.195847904 
-84.6491167101 25.8798321367 230.594365345 
-83.7699595828 22.4460930202 225.926463212 
-86.2482015472 19.911966279 230.594365345 
-85.1316604699 16.5479184795 225.926463212 
-88.4889613522 14.0152746187 233.395106624 
-86.0786084647 10.5691241435 225.926463212 
-90.3220755797 7.90215767935 236.195847904 
-86.6061901315 4.53883809696 225.926463212 
-92.803162408 1.61988522538 241.797330463 
91.7646370592 1.60175769798 227.160044369 
92.0269291923 4.82292699321 228.087228223 
91.0561889444 7.96638427651 226.232860514 
91.0945115052 11.1849995958 227.160044369 
90.6486683336 14.3573386002 227.160044369 
95.9759679661 18.655838323 241.994986042 
94.5364117302 21.8254503716 240.140618333 
94.0789676524 25.2083834072 241.067802187 
92.7836593268 28.3668113942 240.140618333 
91.7371505877 31.5876341119 240.140618333 
85.332993513 32.7562672115 226.232860514 
84.1378337194 35.7143915043 226.232860514 
83.1796738086 38.7873188998 227.160044369 
81.7753450907 41.6666194649 227.160044369 
79.9437474023 44.3135427922 226.232860514 
78.3485274909 47.0765447281 226.232860514 
76.9720234918 49.9862165193 227.160044369 
74.8737806594 52.427185632 226.232860514 
73.2976613109 55.2337495439 227.160044369 
71.325380296 57.7581541253 227.160044369 
68.9834811072 59.9664252549 226.232860514 
71.2321788739 66.4250814183 241.067802187 
69.1354711077 69.1354711077 241.994986042 
66.4250814183 71.2321788739 241.067802187 
63.8986498618 73.5069880651 241.067802187 
61.2943676432 75.6922403142 241.067802187 
58.1645199279 77.1869249723 239.213434478 
55.2204373255 78.8629574978 238.286250624 
50.59829264 77.9145380651 229.941595933 
46.8836080693 78.0274269684 225.30567666 
44.1319299119 79.6161090933 225.30567666 
41.8366872995 82.1091220094 228.087228223 
38.4706877251 82.5006560632 225.30567666 
35.5680210473 83.793006532 225.30567666 
32.6220202148 84.9832681297 225.30567666 
29.6362744756 86.0699907059 225.30567666 
26.6144215011 87.0518502564 225.30567666 
23.6570982745 88.28949272 226.232860514 
21.488377779 93.0763899274 236.431882915 
18.2984467843 94.1373478901 237.359066769 
14.9433524206 94.3486139799 236.431882915 
11.6415301916 94.812654832 236.431882915 
8.32552455127 95.1611810689 236.431882915 
4.97977014746 95.0196748571 235.50469906 
1.66059777668 95.1355829104 235.50469906 
-1.68674892277 96.6337810665 239.213434478 
-4.76411081036 90.904649568 225.30567666 
-8.42347189893 96.2807243756 239.213434478 
-11.7784893703 95.92809783 239.213434478 
-15.0605551847 95.0886031091 238.286250624 
-18.2984467843 94.1373478901 237.359066769 
-21.3198414827 92.346379026 234.577515205 
-24.4327408408 91.1842301862 233.650331351 
-26.5048971328 86.6936121895 224.378492805 
-31.3437141573 91.0287556025 238.286250624 
-34.5014781695 89.8794234952 238.286250624 
-37.0317256172 87.2412784058 234.577515205 
-40.6871059479 87.2537802808 238.286250624 
-42.006755134 82.4428989282 229.014412078 
-46.1296715951 83.2201304926 235.50469906 
-43.4107482123 72.2476175633 208.616367278 
-41.2131254568 63.4626479402 187.291138622 
-51.7825890873 73.953201389 223.451308951 
-58.1645199279 77.1869249723 239.213434478 
-59.1726395324 73.0721243033 232.723147496 
-59.2291331411 68.1353235526 223.451308951 
-65.4031570888 70.1362991989 237.359066769 
-68.0759236578 68.0759236578 238.286250624 
-66.3007203365 61.8264219355 224.378492805 
-71.8106729559 62.4240656342 235.50469906 
-73.0721243033 59.1726395324 232.723147496 
-72.4001389276 54.5574179169 224.378492805 
-78.2492379842 54.7907062957 236.431882915 
-79.4853956874 51.6184195077 234.577515205 
-77.7063264459 46.6906714106 224.378492805 
-83.2201304926 46.1296715951 235.50469906 
-85.4468911968 43.537365645 237.359066769 
-82.1611471905 38.3123721377 224.378492805 
-88.6205871553 37.6172074451 238.286250624 
-86.0324442795 33.0247612051 228.087228223 
-91.0287556025 31.3437141573 238.286250624 
-89.5595167247 27.3810920793 231.795963642 
-87.5658083534 23.4631876329 224.378492805 
-91.2513626739 21.0670370383 231.795963642 
-88.9892116774 17.2977504758 224.378492805 
-93.238630286 14.7675482745 233.650331351 
-89.9790685072 11.0480404171 224.378492805 
-94.7879999667 8.29287543538 235.50469906 
-93.1492088166 4.88174317605 230.868779787 
-91.3900875202 1.59521991146 226.232860514 
95.7145464702 1.67070362321 225.523689096 
95.5979330391 5.01007537463 225.523689096 
95.3648482522 8.34334312094 225.523689096 
95.0155760876 11.6664457889 225.523689096 
94.5505420795 14.9753346896 225.523689096 
100.107149555 19.4588586773 240.251766751 
98.6056291797 22.7649032435 238.410757044 
97.751077629 26.19232231 238.410757044 
96.4037734111 29.4735913402 237.490252191 
95.3164333333 32.8200799969 237.490252191 
91.5595123288 35.1464038484 231.046718217 
88.1191255415 37.4043496188 225.523689096 
86.4059301105 40.2917469205 224.603184242 
85.2952762484 43.4601139702 225.523689096 
83.7265805665 46.4104014552 225.523689096 
82.0558769433 49.304145015 225.523689096 
79.9575061763 51.9250116441 224.603184242 
78.0966414513 54.6838570531 224.603184242 
76.4526797526 57.6112264688 225.523689096 
74.3955040376 60.2442913112 225.523689096 
72.2476888607 62.8039577645 225.523689096 
74.2982908612 69.2842771023 239.331261898 
72.1113325802 72.1113325802 240.251766751 
69.5507550912 74.5840535184 240.251766751 
66.392755351 76.3761282242 238.410757044 
62.9491370435 77.7357103414 235.649242484 
60.6681486896 80.5093525558 237.490252191 
57.1491129038 81.6173916807 234.72873763 
53.4146636175 82.2513690585 231.046718217 
49.5053864232 82.39079889 226.444193949 
46.4104014552 83.7265805665 225.523689096 
43.4601139702 85.2952762484 225.523689096 
40.2917469205 86.4059301105 224.603184242 
37.251678804 87.7594556413 224.603184242 
34.166225255 89.0060597937 224.603184242 
31.1663550358 90.5136673126 225.523689096 
27.7600104483 90.7989028639 223.682679389 
24.6753924465 92.0898183069 224.603184242 
22.6770078642 98.2249124648 237.490252191 
19.2351936351 98.9564926632 237.490252191 
15.7088204704 99.1815890385 236.569747337 
12.2378635418 99.6694002225 236.569747337 
8.71794219984 99.6465353166 235.649242484 
5.2350175343 99.8900851347 235.649242484 
1.73207640937 99.2305910344 233.808232777 
-1.73889560783 99.6212626527 234.72873763 
-5.29636539603 101.06067207 238.410757044 
-8.2752341975 94.586359695 223.682679389 
-12.2854816879 100.0572189 237.490252191 
-15.7699442854 99.5675096184 237.490252191 
-19.2351936351 98.9564926632 237.490252191 
-22.4133217263 97.0827623198 234.72873763 
-25.8889363373 96.6188257646 235.649242484 
-27.7600104483 90.7989028639 223.682679389 
-32.6928703845 94.9469897932 236.569747337 
-35.9865569284 93.7481859303 236.569747337 
-39.3890702108 92.7948342437 237.490252191 
-41.4476576929 88.8847887612 231.046718217 
-43.9922786311 86.3397082025 228.285203656 
-39.0226232644 70.3986759049 189.623999811 
-39.8457988285 66.3145454481 182.259960984 
-51.4993967945 79.3021167815 222.762174535 
-55.1320853896 78.7367778567 226.444193949 
-60.1978529633 79.8852490477 235.649242484 
-63.4409271767 78.3430205784 237.490252191 
-62.0349297102 71.3630232828 222.762174535 
-68.7513211246 73.7267655469 237.490252191 
-70.1773121662 70.1773121662 233.808232777 
-71.7264269468 66.8859752026 231.046718217 
-71.9528003348 62.5476150797 224.603184242 
-77.4320552228 62.7032419769 234.72873763 
-77.700886769 58.5518179214 229.20570851 
-78.0966414513 54.6838570531 224.603184242 
-84.872926638 55.1171230156 238.410757044 
-81.7209549966 49.1029036068 224.603184242 
-87.1439920182 48.3047035554 234.72873763 
-87.7322841412 44.7018315122 231.96722307 
-86.4059301105 40.2917469205 224.603184242 
-93.1545041439 39.5417410256 238.410757044 
-90.8299544616 34.8663528217 229.20570851 
-91.6219979328 31.547983873 228.285203656 
-94.9091412652 29.0166364357 233.808232777 
-93.2220701713 24.9787784192 227.364698803 
-96.7020456048 22.3254263469 233.808232777 
-93.5867605032 18.1914234378 224.603184242 
-98.4097478787 15.5865728402 234.72873763 
-96.5668507992 11.8569183732 229.20570851 
-94.9756039736 8.30928865922 224.603184242 
-97.5489112643 5.11232181084 230.126213363 
-96.4958897067 1.68434202014 227.364698803 
100.448649693 1.75333770235 225.645728038 
99.920089262 5.23658998399 224.73218258 
99.6764662885 8.72056082057 224.73218258 
99.7151077846 12.2434757247 225.645728038 
99.2270728945 15.7160244054 225.645728038 
103.80857379 20.1783426645 237.521818987 
103.041122409 23.788917542 237.521818987 
101.755253864 27.2652380984 236.608273529 
100.741724225 30.7998359987 236.608273529 
97.6825710569 33.634806552 232.040546241 
93.7911780725 36.0030600657 225.645728038 
92.477554345 39.2543928841 225.645728038 
90.6826323756 42.2860059384 224.73218258 
88.7892256387 45.2403701038 223.818637122 
87.5120113779 48.5087000176 224.73218258 
85.7657722087 51.5332749807 224.73218258 
83.9150406573 54.4950645864 224.73218258 
81.6288924024 57.1571657959 223.818637122 
79.9092442939 60.2159346783 224.73218258 
77.442966188 62.7120775023 223.818637122 
75.5141381246 65.6434387893 224.73218258 
77.6392392189 72.3997618479 238.435364445 
74.7776220037 74.7776220037 237.521818987 
71.5675806772 76.7468341704 235.694728072 
67.5113415191 77.6629144127 231.127000784 
63.7359481554 78.7073411462 227.472818953 
59.971154456 79.5844099675 223.818637122 
57.1571657959 81.6288924024 223.818637122 
54.2735399336 83.5739226059 223.818637122 
51.3237901231 85.4171308583 223.818637122 
48.7058898551 87.8677512615 225.645728038 
45.2403701038 88.7892256387 223.818637122 
42.1141116053 90.3140037887 223.818637122 
38.7776188815 91.3543451829 222.905091665 
35.5657759353 92.6520139664 222.905091665 
32.3106015697 93.8368005428 222.905091665 
30.5619994273 99.9637958528 234.781182614 
27.2652380984 101.755253864 236.608273529 
23.788917542 103.041122409 237.521818987 
19.8679066235 102.211518809 233.867637157 
15.5887691471 98.4236148144 223.818637122 
12.1443382695 98.907698005 223.818637122 
8.72056082057 99.6764662885 224.73218258 
5.21530303283 99.5139100374 223.818637122 
1.73914063593 99.6353003032 223.818637122 
-1.73914063593 99.6353003032 223.818637122 
-5.21530303283 99.5139100374 223.818637122 
-8.68511138634 99.2712774012 223.818637122 
-12.7887317287 104.155861573 235.694728072 
-16.4159283263 103.646092335 235.694728072 
-20.023124644 103.0100463 235.694728072 
-23.2399425218 100.663250353 232.040546241 
-25.7914414444 96.254969871 223.818637122 
-30.7998359987 100.741724225 236.608273529 
-34.164488545 99.2208792625 235.694728072 
-37.7521965871 98.3478344971 236.608273529 
-40.2079408894 94.7239726691 231.127000784 
-42.1141116053 90.3140037887 223.818637122 
-47.8255341098 93.8628956752 236.608273529 
-50.4805983923 91.0694102144 233.867637157 
-53.6281235572 89.2521857131 233.867637157 
-54.4950645864 83.9150406573 224.73218258 
-59.9567004471 85.6270422343 234.781182614 
-62.4189566787 82.8327532314 232.954091699 
-65.5277217983 80.919997323 233.867637157 
-65.1097522951 74.9002020423 222.905091665 
-70.458005783 75.5569607724 232.040546241 
-72.4767720959 72.4767720959 230.213455326 
-72.5822772774 67.6840685474 222.905091665 
-78.5838185362 68.3118712605 233.867637157 
-79.3395286253 64.247883482 229.299909868 
-79.2595756411 59.7263742337 222.905091665 
-84.6275047763 59.2568167843 232.040546241 
-85.6206309146 55.6026878503 229.299909868 
-85.4171308583 51.3237901231 223.818637122 
-90.7136703307 50.2834085548 232.954091699 
-89.1516306413 45.4250246757 224.73218258 
-94.7375468314 44.1768436023 234.781182614 
-97.3447940473 41.3204135622 237.521818987 
-93.4114567038 35.8572986889 224.73218258 
-98.0671481083 33.7672270503 232.954091699 
-97.2410465495 29.7295714273 228.386364411 
-101.755253864 27.2652380984 236.608273529 
-101.059562362 23.3314383585 232.954091699 
-99.0174088462 19.2470345415 226.559273495 
-100.432260015 15.906907293 228.386364411 
-98.907698005 12.1443382695 223.818637122 
-102.5127885 8.96870686018 231.127000784 
-99.920089262 5.23658998399 224.73218258 
-104.515396645 1.82432303443 234.781182614 
105.638473733 1.84392641793 226.576946759 
105.087730447 5.50741458263 225.670638972 
104.831507844 9.17156851668 225.670638972 
104.447564197 12.8245483073 225.670638972 
103.936367281 16.4619033612 225.670638972 
103.298539913 20.0792021217 225.670638972 
107.888084765 24.9079269736 237.452640204 
106.953088143 28.657993596 237.452640204 
105.079481951 32.1260216243 235.64002463 
102.695508134 35.3608992113 232.921101268 
99.0315823974 38.014662815 227.483254546 
96.4774959503 40.9522673619 224.764331185 
95.3725331683 44.472942594 225.670638972 
93.7623514846 47.7743042858 225.670638972 
92.0379348185 51.0174603469 225.670638972 
90.2013841063 54.1984594912 225.670638972 
88.2549369019 57.3134261613 225.670638972 
86.2009646516 60.35856525 225.670638972 
84.0419698041 63.3301667245 225.670638972 
82.1090188374 66.4905724359 226.576946759 
80.37642083 69.8701566607 228.389562333 
77.270857524 72.0562403599 226.576946759 
78.2950945473 78.2950945473 237.452640204 
75.8031648586 81.2889421152 238.358947991 
73.1973069779 84.203869441 239.265255778 
70.2140444923 86.7071238923 239.265255778 
66.6365609712 88.4297031674 237.452640204 
63.5098156446 90.7014166214 237.452640204 
60.0755189883 92.5081868731 236.546332417 
56.5927689467 94.1861842074 235.64002463 
52.2467967408 94.2557163804 231.108485694 
48.5417629892 95.2685739984 229.29587012 
44.1157302037 94.6064887252 223.858023398 
40.7871372515 96.0884737892 223.858023398 
37.5603042953 97.8479379863 224.764331185 
34.1225797837 99.0991673821 224.764331185 
30.6432821648 100.229659708 224.764331185 
27.1266504268 101.238037632 224.764331185 
23.5769690438 102.123072602 224.764331185 
19.9179233898 102.468832765 223.858023398 
17.1230239781 108.110518578 234.733716842 
13.4425988281 109.481181748 236.546332417 
9.53990460169 109.041608561 234.733716842 
5.79495028373 110.574238462 237.452640204 
1.9029320633 109.018904893 233.827409055 
-1.88818065196 108.173797103 232.014793481 
-5.46317832092 104.243652291 223.858023398 
-9.65040542719 110.304638776 237.452640204 
-13.4941030382 109.900649878 237.452640204 
-17.1891360398 108.527933707 235.64002463 
-20.8049564152 107.032222078 233.827409055 
-24.622721703 106.652725016 234.733716842 
-28.0017036663 104.503780781 232.014793481 
-30.3961589215 99.4213560002 222.951715611 
-35.9112634014 104.293881801 236.546332417 
-39.529191214 102.977063768 236.546332417 
-42.6035684652 100.367717561 233.827409055 
-46.7948231311 100.351822049 237.452640204 
-47.1987102583 92.6326845992 222.951715611 
-53.4761331347 96.4734979423 236.546332417 
-56.1574399548 93.4616750981 233.827409055 
-59.3849957816 91.4448743803 233.827409055 
-59.6313536205 85.1623988125 222.951715611 
-66.6365609712 88.4297031674 237.452640204 
-68.0863461743 84.0796352895 232.014793481 
-68.761106555 79.1006046264 224.764331185 
-75.2267149357 80.670775255 236.546332417 
-77.6974220698 77.6974220698 235.64002463 
-77.5799409541 72.3444653213 227.483254546 
-78.1437424736 67.9293189757 222.045407824 
-83.4227631388 67.5544215948 230.202177907 
-82.691898 62.3128146486 222.045407824 
-88.9704735561 62.2977962621 232.921101268 
-90.0271243899 58.4642981726 230.202177907 
-88.7523658877 53.3278015074 222.045407824 
-94.6253466407 52.4516861398 232.014793481 
-94.8920183699 48.3498983134 228.389562333 
-93.8404442821 43.7585178134 222.045407824 
-98.8116289168 41.9430480239 230.202177907 
-97.4533898492 37.4088514554 223.858023398 
-103.494694968 35.6360813063 234.733716842 
-102.250418976 31.2610902729 229.29587012 
-101.646255526 27.2360320817 225.670638972 
-106.652725016 24.622721703 234.733716842 
-103.713393487 20.1598414876 226.576946759 
-107.275688318 16.9907998548 232.921101268 
-104.028096067 12.7730440972 224.764331185 
-110.304638776 9.65040542719 237.452640204 
-105.931808603 5.55165084434 227.483254546 
-105.638473733 1.84392641793 226.576946759 
110.014399566 1.92030848746 225.597305621 
110.318134341 5.78152843544 226.496099667 
109.612456069 9.58984728728 225.597305621 
109.211002279 13.4094249606 225.597305621 
108.676491705 17.2126653151 225.597305621 
108.4398926 21.0785798465 226.496099667 
113.190966515 26.132193691 238.180422269 
111.363145204 29.8396648241 236.382834177 
110.253916501 33.7080050253 236.382834177 
109.010360384 37.5352772148 236.382834177 
104.359954157 40.0600330987 229.192481806 
101.284214826 42.9925984734 225.597305621 
99.3247959868 46.3159130133 224.698511575 
98.0384795031 49.9531003365 225.597305621 
95.8520110058 53.1316373004 224.698511575 
93.9393531497 56.4444578846 224.698511575 
92.2798936408 59.9272636298 225.597305621 
90.1322478834 63.1112794038 225.597305621 
87.5246911015 65.9545854635 224.698511575 
85.1695915866 68.9689753806 224.698511575 
82.7107260437 71.899337225 224.698511575 
80.1510902218 74.7421008022 224.698511575 
81.8334555908 81.8334555908 237.281628223 
78.6286900439 84.3189469133 236.382834177 
75.6381027607 87.011683798 236.382834177 
72.2794861988 89.2577319828 235.48404013 
66.2184038054 87.8747898659 225.597305621 
64.3684762046 91.9277109887 230.091275853 
59.6885095914 91.9122446621 224.698511575 
56.2186800531 93.5635957371 223.799717528 
53.3441638496 96.2354190498 225.597305621 
49.9531003365 98.0384795031 225.597305621 
46.5011766654 99.7220951707 225.597305621 
42.9925984734 101.284214826 225.597305621 
39.4316404227 102.722935268 225.597305621 
35.8226409921 104.036503636 225.597305621 
32.1699971915 105.22331955 225.597305621 
29.7262060225 110.939711192 235.48404013 
25.836357536 111.909559347 235.48404013 
21.9986765858 113.173379975 236.382834177 
17.9670052293 113.439206481 235.48404013 
14.0505130065 114.432245416 236.382834177 
10.1247391678 115.72629824 238.180422269 
5.98801159385 114.25806771 234.585246084 
1.9968148017 114.397443373 234.585246084 
-2.0274173274 116.150660896 238.180422269 
-5.94212644754 113.382526961 232.787657991 
-9.58984728728 109.612456069 225.597305621 
-14.1039370103 114.86734901 237.281628223 
-17.9670052293 113.439206481 235.48404013 
-21.9986765858 113.173379975 236.382834177 
-25.7377454843 111.482423624 234.585246084 
-29.3858296176 109.669409156 232.787657991 
-32.9390011084 107.738618026 230.990069899 
-35.6799213068 103.622015574 224.698511575 
-41.3168184508 107.633991934 236.382834177 
-45.048021508 106.126488045 236.382834177 
-47.7980222297 102.503189458 231.888863945 
-49.7540840005 97.6478879513 224.698511575 
-56.1070089893 101.219723622 237.281628223 
-58.9280140315 98.0726846883 234.585246084 
-63.0310661285 97.0593303632 237.281628223 
-62.8598400436 89.7731552624 224.698511575 
-69.3842239076 92.0759750388 236.382834177 
-71.4518584943 88.2356968837 232.787657991 
-75.9257001096 87.3425267022 237.281628223 
-74.443132399 79.8304858609 223.799717528 
-81.5234803802 81.5234803802 236.382834177 
-82.0747163871 76.5359112215 230.091275853 
-82.7107260437 71.899337225 224.698511575 
-88.2356968837 71.4518584943 232.787657991 
-89.6252836879 67.5374955146 230.091275853 
-89.7731552624 62.8598400436 224.698511575 
-95.22108547 61.8372959367 232.787657991 
-93.9393531497 56.4444578846 224.698511575 
-100.452907534 55.6819558909 235.48404013 
-102.725578125 52.3412963686 236.382834177 
-99.3247959868 46.3159130133 224.698511575 
-105.319442509 44.7054510022 234.585246084 
-104.359954157 40.0600330987 229.192481806 
-104.036503636 35.8226409921 225.597305621 
-108.157834438 33.0671684279 231.888863945 
-106.70537107 28.5916180063 226.496099667 
-111.055287901 25.6391334327 233.686452038 
-109.300526668 21.2458701627 228.29368776 
-114.305154622 18.104157941 237.281628223 
-111.821623847 13.7299689835 230.990069899 
-110.922565106 9.70446697598 228.29368776 
-112.506986213 5.89624130123 230.990069899 
-110.452703947 1.92795911888 226.496099667 
115.296024116 2.01249958691 226.315657144 
115.155553671 6.03504683999 226.315657144 
114.874783921 10.0502413181 226.315657144 
114.454056943 14.0531911253 226.315657144 
113.893885327 18.0390192839 226.315657144 
113.194951555 22.0028696761 226.315657144 
118.551073708 27.369671943 238.789748482 
117.085146673 31.3728704967 237.898741958 
115.484770901 35.3072377056 237.007735434 
114.182215873 39.3160898716 237.007735434 
111.892874114 42.9516501492 235.225722386 
107.400417817 45.5887726137 228.988676716 
104.509601789 48.7336276651 226.315657144 
102.745158286 52.3512729589 226.315657144 
100.855535633 55.9051362906 226.315657144 
98.8430360464 59.3908878254 226.315657144 
96.7101114456 62.8042807118 226.315657144 
94.4593604712 66.1411562564 226.315657144 
92.0935253163 69.3974489903 226.315657144 
89.6154883868 72.5691916226 226.315657144 
87.0282687888 75.6525198732 226.315657144 
84.3350186511 78.6436771818 226.315657144 
85.7122761763 85.7122761763 237.898741958 
82.6687472738 88.6513778733 237.898741958 
79.8223438033 91.8251025016 238.789748482 
76.2833628473 94.2021078711 237.898741958 
72.6760686277 96.4444005281 237.007735434 
69.0055370391 98.5501201766 236.11672891 
65.5241511363 100.898344618 236.11672891 
61.4952893625 102.345348347 234.334715862 
56.7855321377 102.443811785 229.879683241 
51.9390582111 101.936141291 224.533644095 
48.3498983134 103.686691539 224.533644095 
44.7018315122 105.310915525 224.533644095 
40.9993024152 106.806834382 224.533644095 
37.2468219836 108.172625564 224.533644095 
33.5816960132 109.840778338 225.42465062 
29.6103496823 110.507329444 224.533644095 
25.7356616778 111.473397666 224.533644095 
21.8296187338 112.303652724 224.533644095 
18.6781971325 117.929495437 234.334715862 
14.6064663665 118.960122177 235.225722386 
10.406352231 118.945150281 234.334715862 
6.27264710928 119.689236886 235.225722386 
2.09965508083 120.289159019 236.11672891 
-2.07588540067 118.927394954 233.443709337 
-6.20136702849 118.329131921 232.552702813 
-10.0106734389 114.422520993 225.42465062 
-14.7171214147 119.861335224 237.007735434 
-18.8912564154 119.274698807 237.007735434 
-23.2156262724 119.434043373 238.789748482 
-26.9611693767 116.781654698 235.225722386 
-30.7853635586 114.89254093 233.443709337 
-34.5108338476 112.879851256 231.661696289 
-37.2468219836 108.172625564 224.533644095 
-43.1143457937 112.316710759 236.11672891 
-47.007878376 110.743621484 236.11672891 
-50.076680396 107.389787665 232.552702813 
-51.9390582111 101.936141291 224.533644095 
-58.3262248702 105.22329505 236.11672891 
-61.4952893625 102.345348347 234.334715862 
-64.2878463979 98.9946022672 231.661696289 
-65.8807580034 94.0874732252 225.42465062 
-72.4028503246 96.0818275938 236.11672891 
-74.2834244955 91.7323896872 231.661696289 
-75.3546753068 86.6856378093 225.42465062 
-81.7398849449 87.6552949759 235.225722386 
-83.1441180887 83.1441180887 230.770689765 
-83.6709633861 78.0244356292 224.533644095 
-90.4545785837 78.6309655375 235.225722386 
-92.4380234541 74.8548354532 233.443709337 
-91.3683794477 68.8510123841 224.533644095 
-98.5501201766 69.0055370391 236.11672891 
-98.2331053267 63.7933245025 229.879683241 
-98.0647444239 58.9232430394 224.533644095 
-103.237949861 57.2257300613 231.661696289 
-103.958683777 52.9695950804 228.988676716 
-103.275236414 48.1580336375 223.642637571 
-108.654119192 46.1209372745 231.661696289 
-106.806834382 40.9993024152 224.533644095 
-111.606677169 38.4292607767 231.661696289 
-109.406625064 33.4489620369 224.533644095 
-115.769583227 31.0203663338 235.225722386 
-113.242816677 26.1441642441 228.097670192 
-112.303652724 21.8296187338 224.533644095 
-116.135890943 18.3941180887 230.770689765 
-113.552843896 13.9425360771 224.533644095 
-119.849676139 10.4854879894 236.11672891 
-114.248817028 5.98752678613 224.533644095 
-118.4734736 2.06796217395 232.552702813 
120.166415358 2.09751258227 226.034583772 
120.020011091 6.28998225082 226.034583772 
119.727380929 10.4747885449 226.034583772 
119.288881395 14.6468329227 226.034583772 
119.168738323 18.8744739234 226.917531365 
117.976588259 22.9323256968 226.034583772 
123.508540003 28.514193219 238.395850072 
121.984696238 32.6857008458 237.512902479 
120.320714059 36.785733903 236.629954886 
118.075826166 40.6567674108 234.8640597 
113.51697061 43.5750823833 228.68342655 
110.198467286 46.7764741478 225.151636179 
108.924347685 50.7922574851 226.034583772 
107.085369693 54.5627211271 226.034583772 
105.115924673 58.2667084981 226.034583772 
103.018412091 61.8997068601 226.034583772 
101.189119424 65.7129825031 226.917531365 
98.0649905499 68.6658456175 225.151636179 
95.6088485545 72.0464350539 225.151636179 
93.0362219047 75.3392470072 225.151636179 
90.3502449496 78.5402696931 225.151636179 
87.5541901383 81.6456031586 225.151636179 
88.9670288662 88.9670288662 236.629954886 
85.8079280255 92.0177370866 236.629954886 
82.2362823845 94.6020211825 235.747007293 
78.5891753095 97.0495491241 234.8640597 
74.8717854482 99.3582151645 233.981112108 
70.0122347472 99.9878335018 229.566374143 
65.2015974253 100.40165546 225.151636179 
61.4161154003 102.213580746 224.268688586 
58.039104168 104.705315592 225.151636179 
54.1364498683 106.248765242 224.268688586 
50.3954429735 108.073376219 224.268688586 
46.9599113014 110.630618138 226.034583772 
42.7338645767 111.325523301 224.268688586 
38.9754725179 113.192991249 225.151636179 
34.8640910872 114.035303624 224.268688586 
32.3211763011 120.624272116 234.8640597 
27.8805444808 120.76390578 233.098164515 
23.6489608748 121.663356642 233.098164515 
19.682330784 124.2693458 236.629954886 
15.1045464515 123.016658938 233.098164515 
10.9248771152 124.871916828 235.747007293 
6.43740370982 122.832980101 231.332269329 
2.08112576522 119.227615238 224.268688586 
-2.19583348456 125.799216078 236.629954886 
-6.58482516883 125.645949111 236.629954886 
-10.8839599724 124.404231746 234.8640597 
-15.2189748337 123.948603324 234.8640597 
-19.3885646529 122.414579444 233.098164515 
-23.6489608748 121.663356642 233.098164515 
-26.7188551274 115.732076373 223.385740993 
-32.3211763011 120.624272116 234.8640597 
-36.6484737019 119.871756171 235.747007293 
-40.8096124011 118.519720249 235.747007293 
-44.0798130673 114.831838995 231.332269329 
-46.4095998408 109.334165582 223.385740993 
-52.9747372989 113.60469075 235.747007293 
-56.0546705329 110.013485271 232.215216922 
-60.9979604589 110.043233642 236.629954886 
-61.1743196703 101.811165074 223.385740993 
-68.2699078924 105.126439246 235.747007293 
-70.8200682251 101.141539273 232.215216922 
-74.8717854482 99.3582151645 233.981112108 
-74.7483509522 92.3065260466 223.385740993 
-82.2362823845 94.6020211825 235.747007293 
-82.9263185022 88.9275891993 228.68342655 
-83.9875309819 83.9875309819 223.385740993 
-89.9576384951 83.88685501 231.332269329 
-93.1847624382 81.0042781541 232.215216922 
-92.6713739756 75.0437989797 224.268688586 
-100.108088487 75.4368555271 235.747007293 
-97.2958533691 68.1272899656 223.385740993 
-104.732707264 68.0142153534 234.8640597 
-104.225659107 62.6250940499 228.68342655 
-103.884097431 57.5838955079 223.385740993 
-111.268391947 56.6940774211 234.8640597 
-109.775319151 51.1890719967 227.800478958 
-109.334165582 46.4095998408 223.385740993 
-114.393549533 43.9115695059 230.449321736 
-112.749097166 38.8226275276 224.268688586 
-117.178008841 35.8249124951 230.449321736 
-114.729100922 30.7415699405 223.385740993 
-115.274637336 26.6132470044 222.5027934 
-116.133204067 22.5740081078 222.5027934 
-116.850280379 18.5072662596 222.5027934 
-118.356937009 14.5324045404 224.268688586 
-118.324325683 10.3520371166 223.385740993 
-119.082354755 6.24084176449 224.268688586 
-119.227615238 2.08112576522 224.268688586 
124.092360037 2.16604020153 223.902645028 
123.941172611 6.49548161827 223.902645028 
123.638981958 10.8170092912 223.902645028 
122.704960328 15.0662746745 223.028025321 
122.583247187 19.4152789989 223.902645028 
121.83098932 23.6815453666 223.902645028 
128.016058875 29.5548359475 237.021940635 
127.374916184 34.1300059275 237.896560342 
125.178951306 38.2710460871 236.147320928 
122.850262421 42.3007376515 234.398081513 
121.751759679 46.7361217429 235.27270122 
117.368907019 49.8201452356 230.024982978 
113.361777387 52.8614649378 225.651884442 
110.583944865 56.3453342142 223.902645028 
108.550156308 60.1703341781 223.902645028 
106.79967906 64.171721272 224.777264735 
104.901654366 68.1239308841 225.651884442 
102.06312742 71.4653711924 224.777264735 
99.5068478337 74.9837881981 224.777264735 
96.8293344816 78.4108490081 224.777264735 
94.0338495009 81.7423782769 224.777264735 
90.769231449 84.6436776833 223.902645028 
88.1027277056 88.1027277056 224.777264735 
89.9339075385 96.4423084146 237.896560342 
85.5591430214 98.4245350807 235.27270122 
82.0720559657 101.350548543 235.27270122 
78.1932110392 103.765895795 234.398081513 
73.968049561 105.637322543 232.648842099 
69.4441621028 106.934632164 230.024982978 
63.6723304449 105.968553153 223.028025321 
59.9352938103 108.12613226 223.028025321 
56.1252352524 110.15197633 223.028025321 
52.2467967408 112.043617185 223.028025321 
48.3047035554 113.798750151 223.028025321 
44.3037585295 115.41523687 223.028025321 
40.2488361983 116.891107901 223.028025321 
36.14487686 118.224565122 223.028025321 
31.996880557 119.413983922 223.028025321 
27.8099009838 120.457915177 223.028025321 
24.9766298788 128.493621548 236.147320928 
20.4770520692 129.287018518 236.147320928 
16.011609556 130.404095093 237.021940635 
11.4085644868 130.400488784 236.147320928 
6.8253302942 130.235060282 235.27270122 
2.28449552506 130.878660976 236.147320928 
-2.27603443052 130.393925195 235.27270122 
-6.74921136898 128.782624666 232.648842099 
-11.2395487166 128.468629691 232.648842099 
-15.8934426958 129.441703248 235.27270122 
-19.4152789989 122.583247187 223.902645028 
-24.699111769 127.065914642 233.523461806 
-29.2276606418 126.598906932 234.398081513 
-33.6280940756 125.501755652 234.398081513 
-37.137089166 121.469945341 229.150363271 
-39.9331590516 115.974314898 221.278785906 
-46.5623815134 121.299150907 234.398081513 
-50.3884358657 118.707715844 232.648842099 
-54.5005801297 116.87687126 232.648842099 
-57.6659279848 113.175756073 229.150363271 
-59.7002534424 107.702108212 222.153405613 
-66.9183708206 111.370871549 234.398081513 
-70.7643933215 108.967609961 234.398081513 
-72.5776726896 103.651658586 228.275743563 
-74.4002567724 98.732475477 223.028025321 
-81.1567542263 100.220245028 232.648842099 
-83.3326969205 95.8633018258 229.150363271 
-84.3130383174 90.4146641387 223.028025321 
-91.5308494062 91.5308494062 233.523461806 
-92.8966353111 86.627513879 229.150363271 
-93.6679590359 81.4243145482 223.902645028 
-100.973780705 81.7669553859 234.398081513 
-101.442778725 76.4426167622 229.150363271 
-101.268861837 70.9092204438 223.028025321 
-107.341227723 69.7082083466 230.899602685 
-105.968553153 63.6723304449 223.028025321 
-113.638444885 62.9908185928 234.398081513 
-114.471661677 58.3262248702 231.774222392 
-112.043617185 52.2467967408 223.028025321 
-117.368907019 49.8201452356 230.024982978 
-115.41523687 44.3037585295 223.028025321 
-123.767055424 42.6164147982 236.147320928 
-120.079068105 36.7118553206 226.526504149 
-119.882274056 32.12235852 223.902645028 
-124.709371007 28.7914269008 230.899602685 
-121.83098932 23.6815453666 223.902645028 
-125.456292043 19.8703246005 229.150363271 
-123.667352174 15.1844415347 224.777264735 
-128.951594464 11.2818026592 233.523461806 
-124.425317816 6.52085459334 224.777264735 
-133.302339883 2.32680099774 240.520419463 
130.480124218 2.27753904007 226.032630388 
130.321154285 6.8298422897 226.032630388 
130.003408101 11.3738244286 226.032630388 
129.527272789 15.9039493144 226.032630388 
128.893328448 20.4146976878 226.032630388 
128.10234744 24.9005738966 226.032630388 
134.46306894 31.0432454995 239.023011445 
132.814801115 35.5876187016 238.156986041 
130.057446811 39.7625518423 235.558909829 
128.590526282 44.2772690062 235.558909829 
123.232616298 47.30456934 228.630706599 
119.665630949 50.7950467036 225.166604984 
117.820012315 54.9403740263 225.166604984 
115.830848144 59.0187649661 225.166604984 
113.700561928 63.025250632 225.166604984 
111.860332742 67.2124687758 226.032630388 
109.027173833 70.803074552 225.166604984 
106.489765758 74.5649367256 225.166604984 
103.822616306 78.2359530098 225.166604984 
101.028974989 81.8116508365 225.166604984 
98.4896002191 85.6157032833 226.032630388 
100.926810823 94.1157736886 239.023011445 
97.5807358037 97.5807358037 239.023011445 
94.1157736886 100.926810823 239.023011445 
90.5361460007 104.149922071 239.023011445 
86.8462139649 107.246142681 239.023011445 
82.1477506603 109.013747121 236.424935233 
78.0063953437 111.404678023 235.558909829 
74.070908762 114.059197241 235.558909829 
69.0151020379 114.860418294 232.094808214 
63.5100602523 114.575181635 226.898655792 
59.0187649661 115.830848144 225.166604984 
54.9403740263 117.820012315 225.166604984 
50.7950467036 119.665630949 225.166604984 
46.7670174157 121.832245658 226.032630388 
42.3238600794 122.917414828 225.166604984 
37.8621357616 123.841465897 224.30057958 
33.5170663408 125.087394504 224.30057958 
29.2436370647 126.668108422 225.166604984 
25.9500233712 133.501296949 235.558909829 
21.0404355479 132.84408181 232.960833618 
15.782079971 128.534726638 224.30057958 
11.9839146278 136.976770988 238.156986041 
7.1961939834 137.311561029 238.156986041 
2.39970588513 137.479058084 238.156986041 
-2.39097968191 136.979134236 237.290960637 
-7.17002600528 136.812246261 237.290960637 
-11.8531810137 135.48247894 235.558909829 
-16.4523613597 133.993730472 233.826859022 
-21.2750872455 134.325614321 235.558909829 
-24.7097649013 127.120720256 224.30057958 
-30.7058189179 133.001513843 236.424935233 
-35.3287996565 131.848875288 236.424935233 
-39.4701801376 129.101142055 233.826859022 
-43.6261326973 126.69948913 232.094808214 
-49.0964090877 127.90051843 237.290960637 
-50.5996811394 119.205378522 224.30057958 
-57.8987018585 124.164166824 237.290960637 
-61.9697032144 121.622390552 236.424935233 
-64.4796794928 116.32442105 230.362757407 
-66.6974307009 111.003165441 224.30057958 
-73.7985892445 113.639861957 234.692884426 
-77.1460306892 110.175949957 232.960833618 
-77.9350454982 103.423298551 224.30057958 
-85.9022333783 106.080423739 236.424935233 
-88.8959984282 102.26314812 234.692884426 
-90.7057818883 97.2700423153 230.362757407 
-91.9238815543 91.9238815543 225.166604984 
-98.7327497186 92.0697786084 233.826859022 
-100.37637417 87.2558508557 230.362757407 
-100.251829028 81.1823304454 223.434554176 
-109.812382632 82.7495656834 238.156986041 
-108.94722189 76.2856660347 230.362757407 
-108.607838549 70.5307550344 224.30057958 
-114.860418294 69.0151020379 232.094808214 
-113.263252075 62.7828458219 224.30057958 
-120.285880765 61.2887174648 233.826859022 
-120.085781782 55.9969196806 229.496732003 
-119.205378522 50.5996811394 224.30057958 
-125.099777151 48.0213052391 232.094808214 
-122.44465554 42.1610760022 224.30057958 
-129.101142055 39.4701801376 233.826859022 
-127.019246157 34.034704431 227.764681195 
-126.18092339 29.1311615375 224.30057958 
-130.556415399 25.3775963851 230.362757407 
-127.905640107 20.2582632227 224.30057958 
-132.008638168 16.2086226729 230.362757407 
-129.007213403 11.2866686858 224.30057958 
-133.816357657 7.01301813655 232.094808214 
-129.98020037 2.26881283685 225.166604984 
134.919423615 2.35502729927 224.577832784 
134.75504508 7.06221265981 224.577832784 
134.42648828 11.7607938021 224.577832784 
133.934153511 16.4450462287 224.577832784 
133.278640606 21.1092628997 224.577832784 
140.549954206 27.3201435479 238.292509595 
139.00903803 32.09276516 237.435342294 
137.306847549 36.7912589161 236.578174994 
135.939207509 41.5607865486 236.578174994 
130.997100014 45.1059187959 230.578003889 
127.419808394 48.9118817935 227.149334686 
124.212902489 52.7252489548 224.577832784 
122.297150693 57.0280979386 224.577832784 
119.773496372 61.0276445765 223.720665483 
118.021161964 65.4201983395 224.577832784 
115.224660868 69.2339610564 223.720665483 
113.170185997 73.4935781101 224.577832784 
110.114462399 77.1029766375 223.720665483 
107.356528565 80.8989469048 223.720665483 
104.467797337 84.5963542668 223.720665483 
101.451788191 88.1906940022 223.720665483 
103.585625704 96.5951586761 235.721007693 
100.151401718 100.151401718 235.721007693 
96.2439035536 103.208950702 234.863840392 
92.5833339333 106.504942392 234.863840392 
86.541098043 106.869355897 228.863669287 
82.4487351597 109.413167043 228.006501987 
77.6938040447 110.958251383 225.435000085 
72.9325584299 112.306291448 222.863498183 
68.9686968378 114.783187072 222.863498183 
65.170502926 117.570699514 223.720665483 
60.7938221835 119.314594087 222.863498183 
56.5927689467 121.363584657 222.863498183 
52.3227661384 123.264712394 222.863498183 
47.9890160993 125.015661066 222.863498183 
43.5967988361 126.614297412 222.863498183 
39.3020481492 128.551207101 223.720665483 
36.7912589161 137.306847549 236.578174994 
31.976906802 138.507200347 236.578174994 
27.2218696502 140.044378831 237.435342294 
22.2372387798 140.400400028 236.578174994 
17.323789157 141.090940339 236.578174994 
12.3892331655 141.609583073 236.578174994 
7.43958280194 141.955696343 236.578174994 
2.48086845267 142.128858464 236.578174994 
-2.47187979885 141.613898832 235.721007693 
-7.41262779178 141.44136411 235.721007693 
-12.3892331655 141.609583073 236.578174994 
-16.9471850448 138.023745984 231.43517119 
-21.6732508397 136.839520317 230.578003889 
-25.5512133901 131.449597459 222.863498183 
-31.6293317281 137.0016873 234.006673092 
-36.5246555907 136.311870393 234.863840392 
-40.8078737488 133.476540706 232.29233849 
-45.1059187959 130.997100014 230.578003889 
-47.8044429604 124.5348316 222.006330882 
-55.1401458535 129.902043061 234.863840392 
-58.7694139062 126.031414836 231.43517119 
-62.4305789346 122.526910082 228.863669287 
-64.671112099 116.669774613 222.006330882 
-72.4171316797 120.522346425 234.006673092 
-75.7376568311 116.625764196 231.43517119 
-80.352527377 114.75530181 233.149505791 
-80.2790316028 106.533873173 222.006330882 
-88.809965782 109.671174216 234.863840392 
-90.2180662781 103.784013207 228.863669287 
-90.9750767167 97.5588256631 222.006330882 
-98.3304671413 98.3304671413 231.43517119 
-100.572225684 93.7851176964 228.863669287 
-100.674379852 87.5149032435 222.006330882 
-108.070135176 87.5134699311 231.43517119 
-109.413167043 82.4487351597 228.006501987 
-109.692567907 76.8075629339 222.863498183 
-116.193816921 75.4571469909 230.578003889 
-119.639398832 71.8866032425 232.29233849 
-116.669774613 64.671112099 222.006330882 
-125.739226076 64.0673356856 234.863840392 
-120.896801639 56.3751044507 222.006330882 
-129.902043061 55.1401458535 234.863840392 
-126.938978928 48.7273086546 226.292167385 
-126.127319345 43.4291188406 222.006330882 
-131.506407264 40.2055435089 228.863669287 
-128.849541722 34.5251306496 222.006330882 
-133.990661205 30.9341815802 228.863669287 
-130.944022084 25.4529394925 222.006330882 
-139.383005825 22.0760993683 234.863840392 
-134.44535257 16.5078135807 225.435000085 
-132.887253681 11.6261282242 222.006330882 
-135.269377313 7.08916766996 225.435000085 
-133.88950435 2.33704999164 222.863498183 
139.87737851 2.44156872388 223.884697385 
139.177766443 7.29399766483 223.036649289 
139.366329022 12.1929738666 223.884697385 
138.329932842 16.9847800637 223.036649289 
137.652905709 21.8020784297 223.036649289 
145.13110019 28.2106281205 236.605418828 
143.541816054 33.1392394234 235.757370731 
141.785968778 37.9914358322 234.909322635 
140.373714608 42.9165514259 234.909322635 
137.287291165 47.2718053017 232.365178347 
134.069730485 51.4645477201 229.821034058 
128.289625977 54.4557154081 223.036649289 
126.791268298 59.1237393947 223.884697385 
124.178480214 63.2720959484 223.036649289 
122.821625398 68.0811386723 224.732745481 
119.462349377 71.7802211973 223.036649289 
117.328910239 76.1942852109 223.884697385 
114.598294432 80.242589627 223.884697385 
111.728058255 84.1931308081 223.884697385 
108.72169865 88.0410956283 223.884697385 
105.582878402 91.7817959352 223.884697385 
108.516356328 101.193139368 237.453466924 
104.543951957 104.543951957 236.605418828 
100.47033123 107.741239497 235.757370731 
96.9966707042 111.581905584 236.605418828 
92.7099416086 114.487243275 235.757370731 
88.3390046737 117.229818699 234.909322635 
84.1939292677 120.241392264 234.909322635 
79.6576618114 122.662042523 234.061274539 
73.963649979 123.0961851 229.821034058 
68.0811386723 122.821625398 224.732745481 
62.7909393252 123.23415717 221.340553097 
58.4518787197 125.350458431 221.340553097 
54.0416035039 127.314039467 221.340553097 
49.7553929987 129.617230211 222.188601193 
45.2015072593 131.27470907 222.188601193 
40.4376170475 132.265485605 221.340553097 
35.796984665 133.596165528 221.340553097 
31.1127391709 134.764079102 221.340553097 
26.3905875966 135.767803404 221.340553097 
22.9626453423 144.980436811 234.909322635 
17.82433193 145.167534085 234.061274539 
12.7471999515 145.701162159 234.061274539 
7.59906981051 144.998889754 232.365178347 
2.55254912042 146.23544117 234.061274539 
-2.53405238767 145.17576406 232.365178347 
-7.59906981051 144.998889754 232.365178347 
-12.7010144444 145.173259398 233.213226443 
-17.4368464533 142.011718127 228.972985962 
-22.5481571592 142.363461417 230.669082155 
-26.8961544088 138.368719178 225.580793578 
-33.0200335262 143.025478587 234.909322635 
-37.5799762384 140.250380669 232.365178347 
-42.7616180272 139.866950295 234.061274539 
-46.5817059543 135.283097133 228.972985962 
-49.5654869186 129.122507958 221.340553097 
-57.1474427857 134.630938287 234.061274539 
-62.0351356527 133.034777722 234.909322635 
-65.1967224411 127.955772387 229.821034058 
-67.0534988433 120.967714071 221.340553097 
-75.3282929675 125.367332426 234.061274539 
-79.9462765281 123.106470213 234.909322635 
-82.0662848458 117.202801123 228.972985962 
-83.5553040596 110.881633571 222.188601193 
-91.0424966156 112.428120195 231.517130251 
-93.1724292069 107.182618984 227.27688977 
-94.6878661232 101.54030485 222.188601193 
-104.169242451 104.169242451 235.757370731 
-104.253213758 97.2176946074 228.124937866 
-104.783008111 91.0864792993 222.188601193 
-112.428120195 91.0424966156 231.517130251 
-112.997695281 85.149870931 226.428841674 
-113.730125534 79.6346912208 222.188601193 
-123.550897903 80.2348912448 235.757370731 
-120.370808308 72.3260783927 224.732745481 
-121.431191903 67.3104088006 222.188601193 
-127.483610866 64.9561441295 228.972985962 
-125.350458431 58.4518787197 221.340553097 
-132.679765269 56.3192189772 230.669082155 
-131.596119221 50.5150173193 225.580793578 
-130.773660562 45.0289824225 221.340553097 
-135.306071481 41.3672174394 226.428841674 
-133.596165528 35.796984665 221.340553097 
-141.992803651 32.7816217318 233.213226443 
-135.767803404 26.3905875966 221.340553097 
-144.980436811 22.9626453423 234.909322635 
-137.277994189 16.8556182381 221.340553097 
-146.22906492 12.7933854585 234.909322635 
-140.765345527 7.3771991591 225.580793578 
-140.93705562 2.46006545664 225.580793578 
144.851918305 2.52839963898 223.086371073 
145.219331181 7.61062265617 223.925041641 
144.322694069 12.6265996205 223.086371073 
143.794114611 17.655697223 223.086371073 
143.090344175 22.663284078 223.086371073 
150.766359906 29.3060116462 236.505100161 
149.121072085 34.4273121709 235.666429593 
147.828735689 39.610590346 235.666429593 
145.835451851 44.5863720752 234.827759025 
143.675604564 49.4714780076 233.989088457 
138.810765529 53.2844605622 228.957065049 
132.855861904 56.3939675642 222.247700506 
131.300419216 61.2263909996 223.086371073 
129.083664318 65.771412084 223.086371073 
126.233288825 69.9722545903 222.247700506 
124.181241219 74.6156174706 223.086371073 
121.044773138 78.6073947925 222.247700506 
118.227677417 82.7839109524 222.247700506 
115.701507557 87.1873396222 223.086371073 
112.164967026 90.8293993816 222.247700506 
109.337783132 95.045884819 223.086371073 
105.555800191 98.4323761072 222.247700506 
108.218145343 108.218145343 235.666429593 
104.004020038 111.530656805 234.827759025 
100.048299809 115.092403297 234.827759025 
95.6279336886 118.090663397 233.989088457 
91.4483750173 121.356092512 233.989088457 
83.0963030692 118.673819596 223.086371073 
79.2006581494 121.958318595 223.925041641 
74.6156174706 124.181241219 223.086371073 
70.236300834 126.709640858 223.086371073 
65.771412084 129.083664318 223.086371073 
61.2263909996 131.300419216 223.086371073 
56.3939675642 132.855861904 222.247700506 
51.7230111685 134.743050788 222.247700506 
46.9890382509 136.46607602 222.247700506 
42.0385793852 137.50199746 221.409029938 
39.1877014811 146.250492959 233.150417889 
33.69220942 145.936992254 230.634406185 
28.7864015106 148.093197497 232.311747321 
23.5152872388 148.469680422 231.473076753 
18.1866956357 148.118749637 229.795735617 
13.1012838168 149.748359259 231.473076753 
7.98117731733 152.289935321 234.827759025 
2.61394699519 149.752923059 230.634406185 
-2.50938911538 143.762806137 221.409029938 
-8.00968152203 152.833827947 235.666429593 
-13.2911574953 151.918625336 234.827759025 
-18.5185696436 150.821646528 233.989088457 
-23.9412888192 151.159348546 235.666429593 
-30.2413098902 155.578052244 244.053135272 
-34.7948635464 150.713112 238.182441297 
-39.1877014811 146.250492959 233.150417889 
-45.541794334 148.960497248 239.859782432 
-49.8261122585 144.705537213 235.666429593 
-54.2603664333 141.353087242 233.150417889 
-58.0964269624 136.866604905 228.957065049 
-60.9962165974 130.806808618 222.247700506 
-68.7385434562 134.90698752 233.150417889 
-73.1408095151 131.949513225 232.311747321 
-78.5427552322 130.71709602 234.827759025 
-78.6073947925 121.044773138 222.247700506 
-87.7821848212 125.36595228 235.666429593 
-90.4650591569 120.051188292 231.473076753 
-90.8293993816 112.164967026 222.247700506 
-99.3336690965 114.270314702 233.150417889 
-102.146805394 109.539037934 230.634406185 
-102.056258064 102.056258064 222.247700506 
-110.734009257 103.26113418 233.150417889 
-114.681358999 99.690984453 233.989088457 
-111.741703 90.4866469311 221.409029938 
-120.921124439 91.1206030638 233.150417889 
-121.35067267 84.97065577 228.118394481 
-121.044773138 78.6073947925 222.247700506 
-130.71709602 78.5427552322 234.827759025 
-126.233288825 69.9722545903 222.247700506 
-135.877541387 69.2330653516 234.827759025 
-134.262082808 62.6074374131 228.118394481 
-132.855861904 56.3939675642 222.247700506 
-141.861551584 54.4555476076 233.989088457 
-136.46607602 46.9890382509 222.247700506 
-144.793770052 44.267897989 233.150417889 
-141.51576477 37.9190348864 225.602382777 
-140.099512564 32.3445210432 221.409029938 
-144.885402605 28.1628693479 227.279723913 
-142.55241055 22.5780837619 222.247700506 
-147.037590881 18.0539460325 228.118394481 
-143.237561031 12.5316627813 221.409029938 
-149.026579564 7.8101520891 229.795735617 
-145.396474388 2.53790490078 223.925041641 
150.959088634 2.63500069362 223.84014459 
150.775168238 7.9017917384 223.84014459 
150.407551525 13.1589556671 223.84014459 
149.301661614 18.3319389634 223.011107017 
149.123243943 23.6188015314 223.84014459 
156.441902129 30.4092252979 236.275708178 
154.740474465 35.7246534337 235.446670606 
153.399438325 41.1032556185 235.446670606 
151.871508598 46.4317798177 235.446670606 
149.101092276 51.3396232423 233.788595461 
143.042124513 54.9087270955 227.15629488 
138.979741048 58.9934000384 223.84014459 
136.836238375 63.8077858675 223.84014459 
136.020755399 69.3060365354 226.327257308 
132.54098717 73.4686688767 224.669182162 
129.416905343 77.7615218569 223.84014459 
127.093208715 82.5352947834 224.669182162 
123.677282708 86.5997656575 223.84014459 
120.579653613 90.8632863402 223.84014459 
117.335116784 95.0161041048 223.84014459 
113.947625189 99.0531593827 223.84014459 
116.555822964 108.690063291 236.275708178 
