280.458891796 96.5697408379 307.158094745 
289.827813041 105.488697009 319.38687135 
291.185236536 111.775539839 322.983570352 
298.20719982 120.48352946 333.054327557 
295.419617492 125.39818784 332.334987756 
289.378511519 128.83961424 328.018948954 
283.938005005 132.402466175 324.422249953 
279.710953796 136.424147545 322.264230552 
276.668477652 140.969630437 321.544890751 
274.779427353 146.10281315 322.264230552 
271.580169538 150.53934617 321.544890751 
269.513124505 155.603474983 322.264230552 
266.160982821 159.925652899 321.544890751 
263.32935772 164.546445097 321.544890751 
261.582699006 169.873790984 322.983570352 
261.457641697 176.355406118 326.580269354 
261.185148328 182.883809728 330.176968355 
257.953605987 187.414265002 330.176968355 
260.74605574 196.486246351 338.089706159 
252.350600628 197.157897111 331.615647956 
247.791584762 200.657668901 330.176968355 
242.123328973 203.165596041 327.299609154 
238.540723861 207.360287682 327.299609154 
230.755602746 207.773277957 321.544890751 
225.062149974 209.873850169 318.66753155 
220.865372771 213.287211229 317.94819175 
217.109358807 217.109358807 317.94819175 
213.76976148 221.365068185 318.66753155 
209.4000943 224.554109003 317.94819175 
206.378826427 229.206907426 319.38687135 
201.89144493 232.249539935 318.66753155 
198.253900312 236.269797943 319.38687135 
194.10022874 239.693820554 319.38687135 
189.887432359 243.044830106 319.38687135 
185.616794425 246.321805848 319.38687135 
185.781025219 255.705644279 327.299609154 
182.485370055 260.616117504 329.457628555 
177.909198243 263.761233254 329.457628555 
172.9004955 266.243415247 328.738288755 
168.595686476 269.809498514 329.457628555 
163.861183507 272.710805665 329.457628555 
154.908816612 268.309940913 320.825550951 
151.549677352 273.40285524 323.702910152 
144.146079046 271.099345737 317.94819175 
139.392788933 273.573751951 317.94819175 
134.29252024 275.340470143 317.228851949 
129.760288358 278.271836391 317.94819175 
124.884012049 280.494083534 317.94819175 
119.698270211 281.991453061 317.228851949 
114.758610134 284.037527258 317.228851949 
109.783993472 285.997080873 317.228851949 
104.775935543 287.869517007 317.228851949 
99.735961849 289.654265297 317.228851949 
94.6656076147 291.350782092 317.228851949 
92.2066971948 301.594516962 326.580269354 
87.1205773754 303.825559895 327.299609154 
81.6250305161 304.628761055 326.580269354 
75.9599875386 304.658869731 325.141589753 
71.1001804438 307.96871625 327.299609154 
65.714556336 309.162680369 327.299609154 
60.1763678719 309.580575002 326.580269354 
54.7642766996 310.583646811 326.580269354 
49.3355037981 311.492111832 326.580269354 
43.7950250647 311.617795336 325.860929553 
38.2652168934 311.645182522 325.141589753 
32.747818954 311.574684609 324.422249953 
27.3051032712 312.098758522 324.422249953 
21.8540701894 312.527764129 324.422249953 
16.3600245361 312.167864387 323.702910152 
11.0306685167 315.877017524 327.299609154 
5.43131017691 311.15955164 322.264230552 
1.91410008724e-14 312.596266707 323.702910152 
-5.33432249518 305.603131075 316.509512149 
-11.0064252892 315.18278232 326.580269354 
-16.5418025865 315.636396214 327.299609154 
-21.9509840262 313.913696565 325.860929553 
-27.3051032712 312.098758522 324.422249953 
-32.675207382 310.88383165 323.702910152 
-38.0112442149 309.576741045 322.983570352 
-43.6983473051 310.929897333 325.141589753 
-47.8141446501 301.886628208 316.509512149 
-54.8849028597 311.26775176 327.299609154 
-59.7787266745 307.534888383 324.422249953 
-64.9924183543 305.765288277 323.702910152 
-70.1625956468 303.907590321 322.983570352 
-76.1280406084 305.332893779 325.860929553 
-78.388795826 292.550968767 313.632152948 
-86.929103579 303.157811411 326.580269354 
-91.5974018389 299.601601651 324.422249953 
-97.2415425158 299.27869453 325.860929553 
-101.092913711 293.595139655 321.544890751 
-103.825586921 285.258455628 314.351492748 
-112.771313023 293.779314367 325.860929553 
-118.141517008 292.41051559 326.580269354 
-121.598242754 286.467507871 322.264230552 
-127.991985199 287.474705523 325.860929553 
-128.292411793 275.123964939 314.351492748 
-137.033183918 280.959663411 323.702910152 
-140.969630437 276.668477652 321.544890751 
-144.798323747 272.326039609 319.38687135 
-147.171575562 265.504550533 314.351492748 
-156.298133353 270.716308096 323.702910152 
-159.925652899 266.160982821 321.544890751 
-163.44210654 261.562046595 319.38687135 
-165.712072274 255.174214175 315.070832548 
-175.578510056 260.305845919 325.141589753 
-178.102533656 254.356778437 321.544890751 
-178.839756145 246.15180702 315.070832548 
-188.961241172 250.760036584 325.141589753 
-193.736501933 247.9714145 325.860929553 
-194.974554095 240.773522449 320.825550951 
-196.467829138 234.141241205 316.509512149 
-205.081603202 235.919397225 323.702910152 
-211.026998193 234.36922516 326.580269354 
-207.978826692 223.029986092 315.790172349 
-218.112713745 225.862326906 325.141589753 
-219.074149384 219.074149384 320.825550951 
-219.865981944 212.322110725 316.509512149 
-228.618436768 213.190141256 323.702910152 
-229.723139199 206.843643604 320.106211151 
-229.628213299 199.61276045 315.070832548 
-241.591189789 202.719078247 326.580269354 
-241.313373396 195.411716772 321.544890751 
-240.855237042 188.17673477 316.509512149 
-249.6504789 188.125129485 323.702910152 
-254.581663425 184.964405328 325.860929553 
-249.804531843 174.915016275 315.790172349 
-258.578152251 174.413165963 322.983570352 
-256.339393236 166.468748403 316.509512149 
-265.096668846 165.650783655 323.702910152 
-266.756421262 160.283428409 322.264230552 
-264.700390138 152.824841501 316.509512149 
-274.617979041 152.223231474 325.141589753 
-273.552733481 145.450568449 320.825550951 
-276.668477652 140.969630437 321.544890751 
-284.705792257 138.860293037 328.018948954 
-279.530984972 130.347438984 319.38687135 
-286.840103524 127.709442186 325.141589753 
-286.467507871 121.598242754 322.264230552 
-284.681603284 115.01883374 317.94819175 
-295.72487274 113.51814291 328.018948954 
-289.175047697 105.251109854 318.66753155 
-296.222389227 101.997548285 324.422249953 
-295.314738311 95.9535750652 321.544890751 
-293.62285572 89.7695157712 317.94819175 
-298.483572028 85.588787004 321.544890751 
-295.905911069 79.2877499066 317.228851949 
-300.614725443 74.9516691199 320.825550951 
-138.755135893 32.0341472329 147.464659069 
-148.805773628 31.6296435991 157.535416274 
-151.380809803 29.425448607 159.693435675 
-139.55740958 24.6077366668 146.745319269 
-151.629420077 24.0157408356 158.974095875 
-140.331192602 19.722262943 146.745319269 
-146.859344861 18.0320601732 153.219377472 
-140.934003681 14.8127606799 146.745319269 
-149.475236897 13.0773887064 155.377396873 
-142.751040822 9.98212518629 148.18399887 
-151.921694002 7.96187860755 157.535416274 
-152.037509533 5.30926682451 157.535416274 
-143.772382119 2.50955626478 148.90333867 
304.009606721 5.30650742413 304.05591591 
302.4573412 10.5620430931 302.641702348 
305.051493277 15.9870713296 305.470129473 
304.020635285 21.2591937906 304.763022691 
302.194475327 26.4385907713 303.348809129 
308.016131199 32.3737999192 309.71277016 
283.541790244 34.8145542128 285.671139599 
273.087853974 38.3799949446 275.771644663 
270.979635853 42.918957964 274.3574311 
285.509338531 50.3429996273 289.913780286 
290.140169489 56.3975358386 295.570634536 
290.495016622 61.7466219154 296.984848098 
186.025593653 42.9473923096 190.91883092 
187.306033771 46.7006393206 193.040151264 
190.560543828 51.0605438279 197.282791951 
200.515825789 57.4969878167 208.59650045 
256.959639573 78.5604457139 268.700576851 
265.636912226 86.3106648286 279.307178569 
274.78744718 94.6169058493 290.620887068 
283.06124839 103.025868888 301.227488785 
291.122203208 111.751343612 311.834090503 
301.584275847 121.847956742 325.269119346 
306.5716505 130.131945001 333.047293939 
306.83773931 136.612963276 335.875721064 
303.125068712 141.349540919 334.461507501 
294.256578008 143.518522494 327.390439689 
292.337054475 148.953169085 328.097546471 
289.068600649 153.700501362 327.390439689 
285.723680955 158.379222568 326.683332908 
282.916065291 163.341666454 326.683332908 
279.416161842 167.890167971 325.976226127 
275.8438574 172.366372402 325.269119346 
273.386666703 177.539377236 325.976226127 
270.246539219 182.28359235 325.976226127 
265.865636091 186.161122542 324.562012565 
263.148245296 191.188391378 325.269119346 
259.206748447 195.326295106 324.562012565 
256.315563861 200.255665894 325.269119346 
260.474934997 210.928443408 335.168614282 
255.129028818 214.078673984 333.047293939 
248.152021831 215.71526154 328.804653252 
242.77302842 218.593816636 326.683332908 
237.369629294 221.350760308 324.562012565 
233.470373316 225.459718761 324.562012565 
229.0 229.0 323.854905783 
224.968521117 232.961723265 323.854905783 
220.868514643 236.852484132 323.854905783 
216.701229479 240.671097438 323.854905783 
212.93183881 244.950060259 324.562012565 
207.715401296 247.545575732 323.147799002 
203.808495951 251.682532128 323.854905783 
199.384989086 255.201148366 323.854905783 
194.900747622 258.642027862 323.854905783 
195.760287693 269.440920727 333.047293939 
190.622500206 272.23714371 332.340187158 
186.237683291 276.108720113 333.047293939 
181.390556785 279.31696316 333.047293939 
175.738757949 281.240802436 331.633080376 
170.439476378 283.658923519 330.925973595 
163.695219845 283.528437727 327.390439689 
156.665161718 282.631433326 323.147799002 
151.376735683 284.698233036 322.440692221 
146.385010998 287.296760433 322.440692221 
141.03872081 289.172231088 321.73358544 
135.970488622 291.589653835 321.73358544 
130.860838507 293.91825555 321.73358544 
125.711326912 296.157326916 321.73358544 
120.523522429 298.306185892 321.73358544 
115.045600907 299.704036863 321.026478659 
109.797522242 301.666213072 321.026478659 
104.515998189 303.536498831 321.026478659 
101.606225684 312.711808063 328.804653252 
96.5466530221 315.789872843 330.218866814 
90.6308452026 316.067318617 328.804653252 
85.6499444856 319.649944486 330.925973595 
79.5450449967 319.03774983 328.804653252 
74.1240178381 321.066394971 329.511760033 
68.6563629392 323.002792291 330.218866814 
63.1436525657 324.84593139 330.925973595 
57.0963288456 323.809371749 328.804653252 
51.4363800342 324.75652235 328.804653252 
45.7607632031 325.604748969 328.804653252 
40.0712072003 326.353793227 328.804653252 
34.5172706901 328.40989331 330.218866814 
28.5955853563 326.849036251 328.097546471 
22.8376026103 326.592933033 327.390439689 
17.0972846164 326.235624754 326.683332908 
11.3764062288 325.777650218 325.976226127 
5.7014103022 326.633577454 326.683332908 
2.01767761103e-14 329.511760033 329.511760033 
-5.87418031136 336.53156465 336.582827845 
-11.7712489613 337.084466711 337.289934626 
-17.6153841502 336.121552777 336.582827845 
-23.4295059177 335.057544688 335.875721064 
-29.2734979402 334.597612541 335.875721064 
-34.9607474013 332.629292368 334.461507501 
-40.8467789526 332.670318257 335.168614282 
-46.6464553942 331.906776368 335.168614282 
-50.883300679 321.264516734 325.269119346 
-57.5874800614 326.59482871 331.633080376 
-62.6039632276 322.069470438 328.097546471 
-67.7742683405 318.852863482 325.976226127 
-73.4877601743 318.31046025 326.683332908 
-78.5186573193 314.921133703 324.562012565 
-82.5387285534 308.038728553 318.905158315 
-90.6308452026 316.067318617 328.804653252 
-95.5129629469 312.408824954 326.683332908 
-100.950701648 310.694312527 326.683332908 
-106.357689787 308.885159603 326.683332908 
-109.071987954 299.672823999 318.905158315 
-117.579644979 306.305447367 328.097546471 
-122.642617329 303.55112982 327.390439689 
-128.474213218 302.666279156 328.804653252 
-131.723657222 295.856178114 323.854905783 
-134.476307429 288.385371925 318.198051534 
-143.518522494 294.256578008 327.390439689 
-148.953169085 292.337054475 328.097546471 
-152.040668734 285.946909497 323.854905783 
-154.265476527 278.302286645 318.198051534 
-163.695219845 283.528437727 327.390439689 
-167.890167971 279.416161842 325.976226127 
-171.242243886 274.044875721 323.147799002 
-174.458433596 268.642429536 320.319371878 
-183.074410538 271.418975398 327.390439689 
-186.566702329 266.444864056 325.269119346 
-188.279002813 259.143815476 320.319371878 
-198.730674977 263.724513125 330.218866814 
-200.691004298 256.872771608 325.976226127 
-205.143486099 253.331107666 325.976226127 
-205.897323385 245.37887485 320.319371878 
-214.787453963 247.084701307 327.390439689 
-221.432697372 245.925924893 330.925973595 
-218.457286317 234.266758323 320.319371878 
-228.898102272 237.030923671 329.511760033 
-230.5 230.5 325.976226127 
-230.418473011 222.512532895 320.319371878 
-239.955355103 223.761988633 328.097546471 
-241.722062929 217.647523058 325.269119346 
-241.214438425 209.684512293 319.612265096 
-250.795627054 210.442518162 327.390439689 
-252.781582486 204.698489383 325.269119346 
-251.857901881 196.772958661 319.612265096 
-261.465630786 197.028485041 327.390439689 
-263.148245296 191.188391378 325.269119346 
-266.444864056 186.566702329 325.269119346 
-274.936283934 185.446865103 331.633080376 
-276.351814932 179.46496701 329.511760033 
-286.637747472 179.111143495 337.997041407 
-290.93222925 174.809719362 339.41125497 
-284.753182599 164.402326626 328.804653252 
-292.52662574 162.150156439 334.461507501 
-297.184997643 158.016066195 336.582827845 
-292.967091231 149.274188846 328.804653252 
-303.789728483 148.168150653 337.997041407 
-298.639074038 139.257687248 329.511760033 
-307.483713498 136.900569515 336.582827845 
-299.411803036 127.092770065 325.269119346 
-297.650567901 120.258635567 321.026478659 
-304.325024216 116.819431758 325.976226127 
-301.666213072 109.797522242 321.026478659 
-308.885159603 106.357689787 326.683332908 
-308.676816991 100.295177611 324.562012565 
-305.646729176 93.4455827965 319.612265096 
-312.668745299 89.6563199854 325.269119346 
-308.721741255 82.7217412553 319.612265096 
-317.665544454 79.2029157709 327.390439689 
-134.351817638 31.0175611125 137.885822331 
-142.480889105 30.2852478918 145.663996924 
-138.128932365 26.8495445739 140.714249456 
-135.791026862 23.9436217739 137.885822331 
-139.680224667 22.1231742082 141.421356237 
-135.84370172 19.0915872288 137.17871555 
-141.069059008 17.3211024672 142.128463018 
-136.427236193 14.3390803295 137.17871555 
-147.927365545 12.9419675104 148.492424049 
-147.425319663 10.3089826038 147.785317268 
-147.582782627 7.73448589789 147.785317268 
-139.921854106 4.88617881411 140.007142675 
-138.571820738 2.41878012821 138.592929113 
304.234392113 5.31043106774 293.840490704 
300.500867951 10.4937215418 290.367198852 
301.70866746 15.811881252 291.756515593 
302.82193544 21.1753725319 293.145832334 
300.973047994 26.3317297263 291.756515593 
313.344841561 32.9338699467 304.260366261 
287.733114071 35.3291840684 279.947323295 
289.209729349 40.6457767668 282.031298406 
272.115193415 43.0988126128 266.054155886 
285.489799207 50.3395543172 279.947323295 
288.804512379 56.1379103965 284.115273518 
255.414241432 54.2899729604 252.160988477 
186.44024265 43.0431215737 184.779126542 
187.056585514 46.638444885 186.168443283 
191.077945032 51.1991810627 191.031051876 
206.059191336 59.0865223088 207.008194397 
257.965527082 78.8679763875 260.496888922 
268.180059381 87.1369834297 272.30608122 
277.500850502 95.5512055393 283.420615147 
285.930361837 104.070140782 293.840490704 
292.800839112 112.395711563 302.87104952 
302.132992716 122.069652747 314.680241818 
309.226748089 131.258967062 324.405459004 
306.231716909 136.343144719 323.710800634 
303.153617096 141.362853249 323.016142263 
300.640323362 146.632083141 323.016142263 
298.035451673 151.856647479 323.016142263 
294.704656153 156.697245231 322.321483893 
291.925027195 161.81668492 322.321483893 
289.056475046 166.886833679 322.321483893 
286.099873494 171.906147091 322.321483893 
283.056123149 176.873096226 322.321483893 
279.322862049 181.394387568 321.626825523 
276.710910969 186.643866152 322.321483893 
272.232884609 190.619517952 320.932167152 
269.446611044 195.76442195 321.626825523 
274.031877079 206.49783083 331.352042709 
269.252561628 210.3631563 329.962725968 
264.422145814 214.124831703 328.573409227 
258.991740679 217.319874082 326.489434116 
252.445077019 219.44715748 323.016142263 
246.973026476 222.375511872 320.932167152 
243.054423473 226.651916641 320.932167152 
239.061783738 230.859281041 320.932167152 
234.487673417 234.487673417 320.237508782 
230.359585628 238.54433399 320.237508782 
226.161328077 242.528331648 320.237508782 
221.894179595 246.438452826 320.237508782 
217.559439996 250.273506464 320.237508782 
212.696046974 253.481278111 319.542850411 
208.69248925 257.713761565 320.237508782 
203.720109259 260.749849156 319.542850411 
205.199102334 272.308406154 329.268067598 
199.99259521 275.266192276 328.573409227 
195.158077903 278.714619957 328.573409227 
190.666363267 282.674508188 329.268067598 
185.312192915 285.355753238 328.573409227 
180.303824386 288.546435883 328.573409227 
174.499558793 290.416035379 327.184092486 
166.886833679 289.056475046 322.321483893 
160.421713498 289.408432133 319.542850411 
154.670987749 290.893820082 318.15353367 
149.897206866 294.189832941 318.848192041 
145.055394075 297.407631713 319.542850411 
139.538816433 299.241957521 318.848192041 
134.587653585 302.288819266 319.542850411 
128.729350995 303.267346092 318.15353367 
123.416999908 305.46779396 318.15353367 
118.067054807 307.575193379 318.15353367 
112.435116637 308.912944113 317.4588753 
107.026717969 310.828158528 317.4588753 
104.03088838 320.174152526 325.100117375 
98.2169199279 321.253069726 324.405459004 
92.9918757142 324.301210525 325.794775745 
87.6902337473 327.264407673 327.184092486 
81.4432545006 326.651052316 325.100117375 
75.5681871238 327.32177939 324.405459004 
70.1432433015 329.998014413 325.794775745 
64.647813684 332.584169512 327.184092486 
58.7086613625 332.953363839 326.489434116 
53.1139413923 335.348227916 327.878750857 
47.0529928088 334.79944038 326.489434116 
40.9397740942 333.427702906 324.405459004 
35.2648059475 335.522216192 325.794775745 
29.5291540502 337.51977525 327.184092486 
23.4835884951 335.830961578 325.100117375 
17.6189533951 336.189658027 325.100117375 
11.6736376003 334.289243055 323.016142263 
5.83770791134 334.442062252 323.016142263 
2.06139301052e-14 336.651026558 325.100117375 
-6.06368370146 347.388206598 335.519992932 
-12.1757295401 348.667275015 336.909309673 
-18.1083687672 345.528259639 334.130676191 
-24.1359103977 345.159599399 334.130676191 
-30.1560999961 344.685800203 334.130676191 
-36.0167207865 342.676208009 332.74135945 
-42.0794251932 342.709416263 333.43601782 
-47.6536693128 339.073475789 330.657384338 
-52.2137050975 329.664359646 322.321483893 
-58.8335734079 333.661775252 327.184092486 
-64.0987876655 329.759675503 324.405459004 
-69.8441249931 328.590773413 324.405459004 
-75.8918196168 328.723585726 325.794775745 
-80.7471583083 323.85916298 322.321483893 
-84.8975511439 316.841974307 316.764216929 
-93.1901526347 324.992684322 326.489434116 
-98.4272345316 321.940977798 325.100117375 
-103.586311934 318.805886917 323.710800634 
-108.431882757 314.909053389 321.626825523 
-112.435116637 308.912944113 317.4588753 
-120.902726429 314.962370513 325.794775745 
-126.650633093 313.471316946 326.489434116 
-130.696830158 307.902436534 323.016142263 
-133.709908019 300.317370445 317.4588753 
-142.578877793 305.761390146 325.794775745 
-147.57809658 302.579938351 325.100117375 
-152.183220914 298.676388128 323.710800634 
-158.385793132 297.880352878 325.794775745 
-159.375484932 287.520985836 317.4588753 
-168.685183179 292.171307751 325.794775745 
-172.276634477 286.716468049 323.016142263 
-176.110712191 281.836053653 320.932167152 
-179.04370436 275.703127335 317.4588753 
-188.655114709 279.692709578 325.794775745 
-193.507692467 276.357625285 325.794775745 
-193.65033532 266.536820428 318.15353367 
-203.900373838 270.584935229 327.184092486 
-206.377328075 264.150934145 323.710800634 
-209.145184454 258.272793586 320.932167152 
-211.771281552 252.379185598 318.15353367 
-221.334874964 254.616647574 325.794775745 
-222.375511872 246.973026476 320.932167152 
-224.198973821 240.423964345 317.4588753 
-233.857453522 242.166482228 325.100117375 
-236.522273621 236.522273621 323.016142263 
-236.991984745 228.860499387 318.15353367 
-246.210974427 229.595448026 325.100117375 
-248.042173777 223.338176425 322.321483893 
-248.644828548 216.143651883 318.15353367 
-256.787555652 215.470343238 323.710800634 
-259.390857627 210.050574863 322.321483893 
-259.616154159 202.834369654 318.15353367 
-268.286973995 202.168735844 324.405459004 
-268.282694797 194.918787298 320.237508782 
-275.179127949 192.682499748 324.405459004 
-285.059947075 192.275362113 332.046701079 
-284.149175 184.528631846 327.184092486 
-294.646783365 184.115744563 335.519992932 
-296.581980928 178.204432653 334.130676191 
-292.794274292 169.04485308 326.489434116 
-301.991407443 167.396570607 333.43601782 
-301.691188949 160.412050614 329.962725968 
-301.881070404 153.816088091 327.184092486 
-309.691859979 151.046812525 332.74135945 
-305.761390146 142.578877793 325.794775745 
-318.717559444 141.902199976 336.909309673 
-311.875371199 132.38324087 327.184092486 
-306.134754209 123.68646934 318.848192041 
-312.276124282 119.871573112 323.016142263 
-310.264860717 112.92717404 318.848192041 
-318.989948249 109.837047544 325.794775745 
-317.437621308 103.141735488 322.321483893 
-315.749805148 96.5344030983 318.848192041 
-321.53531534 92.1987680322 323.016142263 
-319.621289871 85.6422665048 319.542850411 
-326.651052316 81.4432545006 325.100117375 
-136.676117732 31.5541680709 135.45838224 
-144.945822962 30.8091857571 143.099624315 
-141.22470043 27.4513009274 138.931674092 
-138.140225423 24.3578488632 135.45838224 
-142.807190278 22.6184369065 139.626332462 
-137.481472326 19.3217608768 134.069065499 
-144.223546011 17.7084247688 140.320990833 
-138.787441239 14.587147876 134.763723869 
-145.47030653 12.7270027011 141.015649203 
-140.647154849 9.8350071475 136.15304061 
-140.079024178 7.34123058129 135.45838224 
-143.061417996 4.99581480099 138.237015721 
-140.249897074 2.44807105959 135.45838224 
318.090406115 5.55228869178 296.669286627 
315.021425884 11.0007905982 293.941293187 
313.320753512 16.4204448949 292.577296467 
306.420307519 21.4269952196 286.439311226 
293.613984033 25.6878950556 274.845339105 
310.577284085 32.6429879346 291.213299747 
292.538627718 35.9192269515 274.845339105 
306.351920074 43.0549545599 288.485306306 
306.998547675 48.6237931539 289.849303027 
296.740031766 52.3232738566 280.983324346 
298.653336477 58.0523278695 283.711317786 
256.818500801 54.5884575035 244.837411262 
187.416207404 43.268440791 179.365568696 
188.051783335 46.8865755701 180.729565417 
191.443459136 51.2971202717 184.821555577 
210.906689865 60.4765201444 204.599508019 
257.378104519 78.6883832871 250.975396503 
265.007866087 86.1062753485 259.841375184 
277.294912596 95.4802954315 273.481342385 
284.520538111 103.55700691 282.347321066 
290.863215289 111.651927464 290.531301387 
301.076108789 121.642643923 302.807271868 
306.312657529 130.022009007 310.309253828 
312.682430757 139.215187565 319.175232509 
311.530830782 145.269212145 320.539229229 
310.920094853 151.6458627 322.58522431 
309.529436825 157.71312543 323.94922103 
306.084073437 162.747788728 323.26722267 
303.836771155 168.419472415 323.94922103 
300.217799373 173.330827284 323.26722267 
297.147034703 178.543951214 323.26722267 
294.605979281 184.090247342 323.94922103 
290.734926721 188.80546902 323.26722267 
286.789216903 193.44176934 322.58522431 
283.968603016 198.836956446 323.26722267 
279.271814696 202.90285025 321.903225949 
275.688137236 207.74591238 321.903225949 
278.936257478 217.928888679 330.08720627 
275.658759171 223.224061787 330.76920463 
272.281227393 228.471077482 331.45120299 
263.836710379 229.349753281 325.99521611 
260.880825097 234.898149997 327.35921283 
251.927649567 234.926333836 321.221227589 
247.263158079 238.77925618 320.539229229 
243.058226075 243.058226075 320.539229229 
238.77925618 247.263158079 320.539229229 
234.926333836 251.927649567 321.221227589 
230.493809685 255.989309626 321.221227589 
225.511263686 259.421033217 320.539229229 
220.949395919 263.317236368 320.539229229 
216.320224824 267.133230537 320.539229229 
211.625160494 270.867853336 320.539229229 
206.86563309 274.519967163 320.539229229 
202.04309241 278.088459549 320.539229229 
202.192854445 288.761322054 328.72320955 
197.531447338 292.852413878 329.40520791 
191.992059215 295.641845315 328.72320955 
187.190714665 299.567764195 329.40520791 
181.180676231 301.53528205 328.04121119 
174.793534687 302.751282912 325.99521611 
165.937501243 299.359176632 319.175232509 
161.031039901 302.855338485 319.857230869 
154.724876738 303.664668549 317.811235789 
149.722236534 306.976076736 318.493234149 
144.341961855 309.542336118 318.493234149 
138.917719215 312.014305905 318.493234149 
133.451160893 314.391233112 318.493234149 
127.669982135 315.994294359 317.811235789 
122.135676522 318.174315316 317.811235789 
116.564167198 320.257417294 317.811235789 
111.195256774 322.93447427 318.493234149 
105.316336778 324.130355897 317.811235789 
102.637021679 335.710571112 327.35921283 
96.5608438305 336.747681484 326.67721447 
90.8583680089 339.088045702 327.35921283 
84.7496969739 339.912468746 326.67721447 
79.1335361995 342.765002895 328.04121119 
72.8352956663 342.663125024 326.67721447 
66.7043575039 343.164170279 325.99521611 
60.5781592952 343.555813477 325.31321775 
54.8018751076 346.005421967 326.67721447 
48.6531165003 346.184912046 325.99521611 
42.5148170121 346.255398069 325.31321775 
36.2360100258 344.762605752 323.26722267 
30.277295661 346.071072992 323.94922103 
24.1818946049 345.8172042 323.26722267 
18.2959735659 349.107972445 325.99521611 
12.0727933944 345.719569473 322.58522431 
6.01178844558 344.41512938 321.221227589 
2.14060342766e-14 349.587069374 325.99521611 
-6.10113561993 349.53382557 325.99521611 
-12.506699288 358.145008545 334.179196431 
-18.6787345191 356.411486513 332.81519971 
-24.8961277789 356.031214451 332.81519971 
-31.0421957619 354.813921152 332.13320135 
-37.0769300897 352.763425717 330.76920463 
-43.0495945846 350.610811881 329.40520791 
-49.5691793633 352.703038005 332.13320135 
-53.0857412315 335.170179108 316.447239069 
-60.5781592952 343.555813477 325.31321775 
-66.2857109087 341.010420257 323.94922103 
-71.7708967734 337.655521945 321.903225949 
-77.652867123 336.351520512 321.903225949 
-84.3958360262 338.493210004 325.31321775 
-87.6404674753 327.078677417 315.765240709 
-96.1576670296 335.341636885 325.31321775 
-101.781713165 332.912983019 324.63121939 
-107.802344728 331.781501637 325.31321775 
-111.909573199 325.008999801 320.539229229 
-117.564717989 323.006408 320.539229229 
-121.611489069 316.808760315 316.447239069 
-130.135711404 322.097188457 323.94922103 
-135.73726215 319.776950167 323.94922103 
-140.107592613 314.686805313 321.221227589 
-143.414711565 307.553841453 316.447239069 
-152.607675782 312.892103911 324.63121939 
-157.381097798 308.877795906 323.26722267 
-163.777838023 308.021314408 325.31321775 
-164.519232001 296.800551191 316.447239069 
-174.062180985 301.484541143 324.63121939 
-178.167276211 296.520142224 322.58522431 
-182.927572095 292.745309938 321.903225949 
-184.423907503 283.987913654 315.765240709 
-195.077640539 289.214495693 325.31321775 
-197.997981947 282.770423256 321.903225949 
-199.46381889 274.538394108 316.447239069 
-209.946610604 278.608562419 325.31321775 
-212.525693092 272.020482499 321.903225949 
-216.320224824 267.133230537 320.539229229 
-217.658660235 259.395490294 315.765240709 
-229.82956448 264.388670024 326.67721447 
-230.493809685 255.989309626 321.221227589 
-231.933641685 248.718380146 317.129237429 
-240.303379092 248.841433556 322.58522431 
-244.092516398 244.092516398 321.903225949 
-244.63269895 236.239051327 317.129237429 
-252.99740604 235.923897886 322.58522431 
-256.532811345 230.98318083 321.903225949 
-255.557315701 222.152585291 315.765240709 
-265.558234124 222.829816309 323.26722267 
-266.564861961 215.859969027 319.857230869 
-266.833651265 208.473296402 315.765240709 
-276.272222273 208.186052025 322.58522431 
-277.496781976 201.61321349 319.857230869 
-278.576794098 195.061571197 317.129237429 
-288.001856298 194.259704939 323.94922103 
-295.641845315 191.992059215 328.72320955 
-297.086871738 185.640481004 326.67721447 
-305.29663692 183.440726247 332.13320135 
-302.117912028 174.427857836 325.31321775 
-311.512647479 172.674280139 332.13320135 
-313.187290331 166.524636145 330.76920463 
-311.484359584 158.709208328 325.99521611 
-320.780140144 156.454928113 332.81519971 
-316.833483221 147.741879586 325.99521611 
-327.381177502 145.759491254 334.179196431 
-325.162667223 138.023363408 329.40520791 
-315.994294359 127.669982135 317.811235789 
-324.319312822 124.49452006 323.94922103 
-320.257417294 116.564167198 317.811235789 
-328.466542352 113.100100573 323.94922103 
-333.868177748 108.480346896 327.35921283 
-325.919012788 99.6434418799 317.811235789 
-336.044659185 96.3592554301 325.99521611 
-328.491544274 88.0190440086 317.129237429 
-333.525804406 83.1573227093 320.539229229 
-136.820957496 31.5876069653 130.943685132 
-133.774539414 28.4346561369 127.533693332 
-137.840001451 26.7933820936 130.943685132 
-133.965159972 23.621672178 126.851694972 
-145.192254312 22.9961939387 137.081670373 
-134.707936487 18.9319658349 126.851694972 
-140.825046594 17.2911415102 132.307681852 
-135.286592131 14.2191938076 126.851694972 
-144.256994637 12.620851665 135.035675292 
-136.429994062 9.54011453823 127.533693332 
-145.339929951 7.61694296989 135.717673652 
-145.45072796 5.07925134351 135.717673652 
-137.473554827 2.39960982541 128.215691692 
294.983561446 5.14895721779 265.644850724 
293.363388083 10.2444752526 264.306589512 
302.045433128 15.8295303928 272.336156788 
314.325854302 21.9798049028 283.711377096 
289.463921606 25.3248116403 261.630067086 
308.932848553 32.4701507956 279.696593458 
277.339681777 34.0530310479 251.593107991 
292.893211266 41.16345639 266.313981331 
308.278101389 48.8264545528 281.034854671 
304.451590868 53.6830297897 278.358332245 
290.337482447 56.4358895923 266.313981331 
259.50520211 55.1595334959 238.87962647 
186.093204439 42.9630014895 171.966565834 
186.036124027 46.3840152602 172.635696441 
189.505213815 50.7777690032 176.650480079 
206.449073372 59.1983191836 193.378745238 
258.684946874 79.087925091 243.563540715 
266.453318766 86.5759313936 252.262238597 
274.738979608 94.6002171261 261.630067086 
283.521049723 103.193222887 271.667026182 
289.30853812 111.055142813 279.027462852 
299.728869448 121.098323897 291.071813766 
304.410446308 129.214568249 297.76311983 
305.503460858 136.018904235 301.108772861 
310.491771366 144.784690782 308.469209531 
309.253508986 150.833014461 309.807470744 
314.519771761 160.255828081 317.83703802 
315.611966639 167.813859407 321.851821659 
312.635141728 173.296488862 321.851821659 
309.563085124 178.726330527 321.851821659 
307.033732049 184.484478301 322.520952265 
303.137048673 189.421051144 321.851821659 
299.161772567 194.2779267 321.182691052 
296.341686424 199.884991388 321.851821659 
292.808078039 205.026423492 321.851821659 
289.185277478 210.105402561 321.851821659 
284.880886432 214.673145768 321.182691052 
280.505328588 219.154781385 320.513560446 
285.300807949 231.032038935 330.550519541 
280.086726283 235.020668722 329.212258329 
273.13809889 237.435326957 325.866605297 
265.086831184 238.685254888 321.182691052 
259.25031994 241.75483443 319.175299233 
255.526204882 246.758787724 319.84442984 
250.129786857 250.129786857 318.506168627 
245.726324177 254.457057582 318.506168627 
241.248010878 258.706818221 318.506168627 
237.690732993 263.982302721 319.84442984 
232.072311359 266.968655178 318.506168627 
227.377720145 270.978214859 318.506168627 
222.613867476 274.905231951 318.506168627 
217.782204466 278.748510247 318.506168627 
212.884202887 282.506879045 318.506168627 
214.036688679 294.596228616 327.873997116 
208.010176017 297.06931826 326.535735903 
202.793920577 300.654351299 326.535735903 
197.515892145 304.14780211 326.535735903 
192.965311976 308.809051663 327.873997116 
187.163713463 311.492728158 327.204866509 
180.584192591 312.780996611 325.19747469 
172.936205101 311.985172618 321.182691052 
165.371661869 311.018861096 317.167907414 
159.918447391 313.857624873 317.167907414 
153.764973705 315.264916288 315.829646201 
148.867556249 319.247504615 317.167907414 
142.668717331 320.439185612 315.829646201 
137.635292921 324.24843045 317.167907414 
131.955415005 326.601112915 317.167907414 
125.969022903 328.160524055 316.498776808 
120.476816868 331.007333913 317.167907414 
114.439648851 332.35687303 316.498776808 
108.621791908 334.303500732 316.498776808 
105.160867429 343.965698591 323.859213478 
99.7563371709 347.891691115 325.866605297 
93.0925765058 347.426225327 323.859213478 
87.3745403739 350.440140608 325.19747469 
80.9108666183 350.463466725 323.859213478 
74.7821126387 351.822178771 323.859213478 
68.6305793032 353.073722373 323.859213478 
62.3290946837 353.485861513 323.190082871 
56.1504227357 354.519816597 323.190082871 
50.1614983647 356.917606694 324.528344084 
43.743654245 356.263474197 323.190082871 
37.4416571376 356.233571777 322.520952265 
31.348360189 358.313396567 323.859213478 
25.0901546531 358.805928024 323.859213478 
18.7076268279 356.962784606 321.851821659 
12.5527241069 359.462986917 323.859213478 
6.22543945728 356.655187642 321.182691052 
2.22972033297e-14 364.140964484 327.873997116 
-6.30325745049 361.113377488 325.19747469 
-12.8639486716 368.375292377 331.888780754 
-19.2521315588 367.352553804 331.219650148 
-25.5567071157 365.477939082 329.881388935 
-31.9960535814 365.716565917 330.550519541 
-38.3738145767 365.102457381 330.550519541 
-44.4681868205 362.16431849 328.543127722 
-50.8854787535 362.068994831 329.212258329 
-54.6391277139 344.977875364 314.491384989 
-62.4581404284 354.217716299 323.859213478 
-68.3469818681 351.614740049 322.520952265 
-74.16407865 348.914557458 321.182691052 
-80.0750105582 346.842976366 320.513560446 
-86.1160593397 345.392648871 320.513560446 
-91.7461962671 342.40146587 319.175299233 
-96.2740831013 335.747627975 314.491384989 
-105.160867429 343.965698591 323.859213478 
-110.22930257 339.250909834 321.182691052 
-115.891314587 336.572816451 320.513560446 
-122.001839866 335.197300165 321.182691052 
-124.903745754 325.385382203 313.822254382 
-134.182510617 332.113367986 322.520952265 
-139.087142003 327.668772543 320.513560446 
-144.482302721 324.51256509 319.84442984 
-147.925356526 317.226950789 315.160515595 
-157.348479448 322.612191879 323.190082871 
-161.942731535 317.8305062 321.182691052 
-166.418317957 312.9873349 319.175299233 
-169.333367495 305.485481522 314.491384989 
-179.09790294 310.206667421 322.520952265 
-184.484478301 307.033732049 322.520952265 
-187.845824108 300.616158456 319.175299233 
-190.230469893 292.929235639 314.491384989 
-200.300552701 296.957781406 322.520952265 
-204.173922771 291.590580833 320.513560446 
-207.484545148 285.577976719 317.83703802 
-210.200788565 278.945867965 314.491384989 
-219.154781385 280.505328588 320.513560446 
-224.016896052 276.637827951 320.513560446 
-224.511614429 267.562523075 314.491384989 
-234.510045722 269.772947774 321.851821659 
-240.674298679 267.295888111 323.859213478 
-239.220716669 256.532811345 315.829646201 
-248.823714818 257.664499484 322.520952265 
-251.706235094 251.706235094 320.513560446 
-252.31876298 243.661397083 315.829646201 
-263.054831973 245.302599296 323.859213478 
-263.982302721 237.690732993 319.84442984 
-264.725221101 230.122123868 315.829646201 
-274.963188607 230.721510147 323.190082871 
-276.060295951 223.54921986 319.84442984 
-275.820479677 215.494576268 315.160515595 
-286.661391973 216.014852929 323.190082871 
-286.179193512 207.921354717 318.506168627 
-286.111843407 200.337669524 314.491384989 
-295.10949646 199.053868763 320.513560446 
-297.292011489 193.063689658 319.175299233 
-305.027716337 190.602471422 323.859213478 
-314.677725378 189.077452865 330.550519541 
-315.355325802 182.070482242 327.873997116 
-315.884987276 175.097907665 325.19747469 
-325.454335661 173.047139846 331.888780754 
-321.803387528 163.967015679 325.19747469 
-329.95946747 160.931985191 330.550519541 
-328.003237864 152.950421716 325.866605297 
-328.585944568 146.295888111 323.859213478 
-336.561661986 142.861949615 329.212258329 
-326.601112915 131.955415005 317.167907414 
-335.098378686 128.632215776 323.190082871 
-332.40398933 120.985157867 318.506168627 
-332.35687303 114.439648851 316.498776808 
-342.07800075 111.147880091 323.859213478 
-335.437623419 102.553573195 315.829646201 
-342.891194528 98.3224678482 321.182691052 
-339.530174752 90.9768361307 316.498776808 
-341.78729763 85.2171443153 317.167907414 
-136.130437488 31.42818786 125.796553995 
-133.023675031 28.2750549853 122.450900964 
-137.873829604 26.7999576205 126.465684602 
-133.197571005 23.486325533 121.781770357 
-146.06510042 23.134439181 133.156990665 
-133.936091584 18.823490108 121.781770357 
-143.095474108 17.5699149556 129.811337634 
-136.728653068 14.3707605196 123.789162176 
-135.477999115 11.8527890797 122.450900964 
-138.6295631 9.69392338871 125.127423389 
-135.066999581 7.07856150244 121.781770357 
-139.626118885 4.87585151261 125.796553995 
-136.717821929 2.38641845862 123.12003157 
309.383800062 5.40031431783 268.984201886 
306.979681436 10.7199666941 267.016024799 
293.179682742 15.3648961034 255.206962277 
292.114004499 20.4266010587 254.550903248 
284.946481636 24.9295868548 248.646371987 
309.987558499 32.5810052779 270.952378973 
297.386383514 36.5144565183 260.455434509 
297.45118979 41.8040384963 261.111493538 
273.568352022 43.3289703255 240.77366364 
305.473220655 53.8631706854 269.640260915 
295.596532382 57.4581453445 261.767552567 
276.83151193 58.8423543377 246.022135871 
183.841605644 42.4431789486 164.014757248 
183.805161548 45.827773841 164.670816277 
187.351323045 50.2006357109 168.607170451 
216.191076486 61.9917936245 195.505590639 
256.936720494 78.5534386484 233.557014321 
262.70435589 85.3578195149 240.117604611 
273.30570815 94.1067021856 251.270608103 
282.968814325 102.99222564 261.767552567 
290.287821816 111.431054604 270.296319944 
300.19469666 121.286530307 281.449323437 
298.726947563 126.802066164 282.105382466 
301.984140877 134.452002027 287.353854698 
300.959634583 140.339782402 288.665972756 
306.60447178 149.540992687 296.538681104 
311.344887009 158.638143501 303.755330423 
315.858909396 167.9451612 310.971979742 
317.500342446 175.993313657 315.564392944 
319.609260118 184.526492364 320.812865176 
316.98706311 190.465042964 321.468924205 
313.614711103 195.968221276 321.468924205 
309.513876305 201.000661472 320.812865176 
305.958790604 206.371810065 320.812865176 
301.692284996 211.247212174 320.156806147 
298.570136471 216.923901738 320.812865176 
301.97167314 227.551977311 328.685573524 
297.954351798 232.787452415 328.685573524 
293.259751172 237.477064077 328.029514495 
288.492398969 242.073865572 327.373455466 
279.097409735 242.615676842 321.468924205 
274.820674448 247.449646729 321.468924205 
268.25238754 250.149398273 318.844688089 
263.845822433 254.792949003 318.844688089 
259.892547595 259.892547595 319.500747118 
254.268683676 263.302929794 318.18862906 
250.149398273 268.25238754 318.844688089 
245.429649613 272.57724037 318.844688089 
240.635140704 276.819063533 318.844688089 
236.252449967 281.554706008 319.500747118 
230.352752155 284.461958636 318.18862906 
225.817768211 289.033562822 318.844688089 
220.284848295 292.327867211 318.18862906 
221.359973348 304.675865233 327.373455466 
215.143164858 307.256282056 326.061337408 
210.170064238 311.589933989 326.717396437 
204.70006015 315.210450715 326.717396437 
200.767443022 321.295071375 329.341632553 
191.631155472 318.927800231 323.437101292 
182.639718414 316.341271773 317.532570031 
178.188656447 321.460845678 319.500747118 
171.133993375 321.856230461 316.876511002 
165.148132111 324.121459046 316.220451973 
159.466279812 326.954326102 316.220451973 
154.054806591 330.371598872 316.876511002 
148.265563879 333.009908775 316.876511002 
142.726046566 336.241494466 317.532570031 
135.98792792 336.581932619 315.564392944 
130.363515338 339.608568241 316.220451973 
124.41667358 341.832001265 316.220451973 
118.431933299 343.951308951 316.220451973 
114.97651645 353.861331841 323.437101292 
109.445240364 357.979251025 325.405278379 
102.556893479 357.658391636 323.437101292 
96.2992739513 359.393783118 323.437101292 
90.0123207314 361.019699773 323.437101292 
84.0374943183 364.006379175 324.74921935 
77.3580818359 363.941161017 323.437101292 
71.1386561409 365.97665914 324.093160321 
64.6095940338 366.419216017 323.437101292 
57.9687314165 366.000165784 322.124983234 
51.7823893937 368.450845645 323.437101292 
45.1601968526 367.800287923 322.124983234 
38.6554299907 367.781849066 321.468924205 
32.2308642713 368.400464384 321.468924205 
25.7964807185 368.906861352 321.468924205 
19.3542393077 369.300885717 321.468924205 
12.9061024081 369.582417454 321.468924205 
6.41451968971 367.487586903 319.500747118 
2.26904030904e-14 370.562403889 322.124983234 
-6.46720568305 370.50596544 322.124983234 
-12.7480685011 365.056918464 317.532570031 
-19.7492237833 376.837638486 328.029514495 
-26.1650018716 374.176959372 326.061337408 
-32.7570824635 374.415165844 326.717396437 
-39.2865390518 373.786450684 326.717396437 
-45.7120526187 372.29479246 326.061337408 
-52.4126010293 372.935034436 327.373455466 
-56.6700429326 357.800569402 314.908333915 
-64.6095940338 366.419216017 323.437101292 
-70.9946507641 365.235815701 323.437101292 
-77.3580818359 363.941161017 323.437101292 
-83.5281761709 361.800279907 322.781042263 
-89.4645784146 358.822825332 321.468924205 
-94.9319414611 354.290828794 318.844688089 
-100.268605795 349.678184114 316.220451973 
-109.003928911 356.535786303 324.093160321 
-114.510080278 352.425788913 322.124983234 
-121.380446161 352.514412078 324.093160321 
-125.965428853 346.087171405 320.156806147 
-130.093051613 338.903986149 315.564392944 
-139.380558139 344.978987071 323.437101292 
-145.674931825 343.188632782 324.093160321 
-150.107372126 337.146677829 320.812865176 
-153.416898489 329.003600533 315.564392944 
-163.105551758 334.415939353 323.437101292 
-168.231810926 330.173519484 322.124983234 
-172.551252119 324.521706489 319.500747118 
-175.627423192 316.840258574 314.908333915 
-185.658556735 321.570053125 322.781042263 
-190.853747133 317.633975484 322.124983234 
-197.168026712 315.534801171 323.437101292 
-198.12335139 305.083207319 316.220451973 
-207.637894789 307.835838399 322.781042263 
-211.680095806 302.310506892 320.812865176 
-218.698330382 301.012427975 323.437101292 
-218.013870478 289.314177859 314.908333915 
-227.676350665 291.412439882 321.468924205 
-231.302660411 285.634997641 319.500747118 
-232.856624198 277.507718447 314.908333915 
-244.101078945 280.806169387 323.437101292 
-246.439648171 273.698957409 320.156806147 
-247.575844793 265.492589314 315.564392944 
-257.938540966 267.103178266 322.781042263 
-260.426207857 260.426207857 320.156806147 
-260.588466601 251.64735704 314.908333915 
-272.116105056 253.752373145 323.437101292 
-274.820674448 247.449646729 321.468924205 
-273.971130781 238.159470532 315.564392944 
-284.445411408 238.678039803 322.781042263 
-287.394556148 232.727522796 321.468924205 
-286.059966497 223.494540143 315.564392944 
-296.547032305 223.464217239 322.781042263 
-298.570136471 216.923901738 320.812865176 
-297.364731728 208.217026754 315.564392944 
-307.835838399 207.637894789 322.781042263 
-308.880923592 200.589617175 320.156806147 
-312.334651058 195.168350985 320.156806147 
-326.690748715 196.295605504 331.30980964 
-330.72042049 190.941523796 331.965868669 
-323.441097295 179.286327842 321.468924205 
-331.851765568 176.448713666 326.717396437 
-326.138812525 166.17602505 318.18862906 
-335.772596308 163.767237567 324.74921935 
-333.791594719 155.649576845 320.156806147 
-332.320447267 147.958595838 316.220451973 
-342.49391895 145.380043299 323.437101292 
-339.38095077 137.11880466 318.18862906 
-339.608568241 130.363515338 316.220451973 
-347.505561452 126.481680611 321.468924205 
-343.951308951 118.431933299 316.220451973 
-352.425788913 114.510080278 322.124983234 
-348.596730333 106.576715919 316.876511002 
-357.658391636 102.556893479 323.437101292 
-357.935796169 95.9086075255 322.124983234 
-134.74163237 33.5948620985 120.714861334 
-139.719620289 32.256816001 124.651215508 
-132.879125726 28.2443300821 118.090625218 
-142.241940395 27.6490323462 125.963333566 
-142.702818408 25.1623571085 125.963333566 
-134.175213526 21.2512660997 118.090625218 
-145.736135701 20.4818781578 127.931510653 
-134.835136102 16.5556729806 118.090625218 
-139.606987605 14.6732856699 122.026979392 
-135.330782835 11.8399093242 118.090625218 
-140.78690423 9.84477937623 122.683038421 
-135.661549855 7.109720562 118.090625218 
-142.553218161 4.9780680717 123.995156479 
-136.581628808 2.38404119884 118.746684247 
279.563636357 4.87980142417 234.617477536 
279.435893183 9.75811641356 234.617477536 
291.462944822 15.2749256814 244.902079291 
309.49225093 21.6418064287 260.328981923 
322.040612175 28.1749027603 271.256371288 
302.453644688 31.7891590283 255.186681046 
325.423150594 39.9569386533 275.113096946 
311.021634016 43.7112400551 263.542919971 
280.703484158 44.4590642355 238.474203194 
280.639220506 49.4842664201 239.116990803 
280.484828312 54.5207276358 239.759778413 
236.030928239 50.1699225543 202.478097051 
183.617050323 42.3913362679 158.125751983 
185.822412324 46.3307309482 160.696902422 
187.205354259 50.1615234924 162.625265251 
219.438015806 62.9228384924 191.550707687 
255.667608538 78.1654321851 224.332875781 
261.550009825 84.9827497419 230.760751877 
272.340278265 93.7742780175 241.688141242 
281.459907364 102.44302842 251.329955387 
290.356623757 111.457465194 260.971769533 
295.469840449 119.377564485 267.39964563 
297.572298953 126.311946907 271.256371288 
299.521428344 133.355531763 275.113096946 
299.23125097 139.533823887 277.041459775 
303.635637442 148.09299543 283.469335872 
308.51286968 157.195158599 290.539999578 
313.162595946 166.511505908 297.610663285 
315.56885382 174.922672029 302.752964162 
318.438695121 183.850666349 308.53805265 
323.061097783 194.114691198 316.251503966 
322.222695653 201.347087003 318.822654405 
319.944546235 207.774417727 320.108229624 
316.904733171 213.754941551 320.751017234 
312.498422055 218.813750802 320.108229624 
308.632000519 224.23427388 320.108229624 
313.236630809 236.040731787 329.10725616 
308.465793307 240.99989058 328.46446855 
303.022127741 245.382480749 327.17889333 
299.280285305 251.125977018 327.82168094 
291.38310437 253.295468252 323.964955282 
284.640981995 256.291891361 321.393804843 
278.443971223 259.653203809 319.465442014 
273.869989612 264.473174724 319.465442014 
269.212584549 269.212584549 319.465442014 
264.473174724 273.869989612 319.465442014 
259.130762755 277.883721784 318.822654405 
254.754140013 282.933136103 319.465442014 
249.274905264 286.757975729 318.822654405 
244.232322747 291.064748061 318.822654405 
239.115344699 295.282859252 318.822654405 
233.9255298 299.411024424 318.822654405 
228.664458918 303.447986096 318.822654405 
228.286700517 314.209687275 325.893318111 
224.525756345 320.656011386 328.46446855 
221.893907262 328.971246057 332.963981818 
216.118771852 332.793724798 332.963981818 
