0.0 0.0 249.0 
0.0 0.0 246.0 
0.0 0.0 249.0 
0.0 0.0 249.0 
0.0 0.0 250.0 
0.0 0.0 249.0 
0.0 0.0 249.0 
0.0 0.0 249.0 
0.0 0.0 249.0 
0.0 0.0 248.0 
-0.0 0.0 247.0 
-0.0 0.0 246.0 
-0.0 0.0 244.0 
-0.0 0.0 249.0 
-0.0 0.0 234.0 
-0.0 0.0 248.0 
-0.0 0.0 248.0 
-0.0 0.0 246.0 
-0.0 0.0 245.0 
-0.0 0.0 244.0 
-0.0 0.0 246.0 
-0.0 0.0 234.0 
-0.0 0.0 249.0 
-0.0 0.0 247.0 
-0.0 0.0 246.0 
-0.0 0.0 248.0 
-0.0 0.0 242.0 
-0.0 0.0 234.0 
-0.0 0.0 248.0 
-0.0 0.0 249.0 
-0.0 0.0 243.0 
-0.0 0.0 234.0 
-0.0 0.0 249.0 
-0.0 0.0 248.0 
-0.0 0.0 244.0 
-0.0 0.0 242.0 
-0.0 0.0 234.0 
-0.0 0.0 249.0 
-0.0 0.0 246.0 
-0.0 0.0 249.0 
-0.0 0.0 234.0 
-0.0 0.0 249.0 
-0.0 0.0 246.0 
-0.0 0.0 243.0 
-0.0 0.0 236.0 
-0.0 0.0 248.0 
-0.0 0.0 245.0 
-0.0 0.0 236.0 
-0.0 0.0 250.0 
-0.0 0.0 246.0 
-0.0 0.0 241.0 
-0.0 0.0 235.0 
-0.0 0.0 245.0 
-0.0 0.0 243.0 
-0.0 0.0 235.0 
-0.0 0.0 247.0 
-0.0 0.0 249.0 
-0.0 0.0 235.0 
-0.0 0.0 249.0 
-0.0 0.0 243.0 
-0.0 0.0 236.0 
-0.0 0.0 246.0 
-0.0 0.0 243.0 
-0.0 0.0 236.0 
-0.0 0.0 246.0 
-0.0 0.0 236.0 
-0.0 0.0 250.0 
-0.0 0.0 246.0 
-0.0 0.0 236.0 
-0.0 0.0 248.0 
-0.0 0.0 243.0 
-0.0 0.0 236.0 
-0.0 0.0 246.0 
-0.0 0.0 236.0 
-0.0 0.0 250.0 
-0.0 0.0 246.0 
-0.0 0.0 236.0 
-0.0 0.0 246.0 
-0.0 0.0 236.0 
-0.0 0.0 248.0 
-0.0 0.0 243.0 
-0.0 0.0 236.0 
-0.0 0.0 243.0 
-0.0 0.0 237.0 
-0.0 0.0 251.0 
-0.0 0.0 241.0 
-0.0 0.0 237.0 
-0.0 0.0 252.0 
-0.0 0.0 238.0 
-0.0 0.0 256.0 
-0.0 0.0 241.0 
-0.0 0.0 253.0 
-0.0 0.0 246.0 
-0.0 0.0 242.0 
-0.0 0.0 247.0 
-0.0 0.0 241.0 
-0.0 0.0 246.0 
-0.0 0.0 239.0 
-0.0 0.0 245.0 
20.3041780604 0.35441044694 232.113366152 
20.2949003311 0.708712937207 232.113366152 
20.3664768146 1.06736091846 233.109560857 
20.2578035431 1.41656241833 232.113366152 
20.2299957845 1.76989379174 232.113366152 
20.2827040059 2.13179627977 233.109560857 
21.2804822166 2.61291243562 245.063897311 
20.5411797081 2.88687207153 237.094339675 
20.3155030897 3.2176568237 235.101950266 
19.9129268138 3.51118323527 231.117171448 
19.8486154385 3.85817666456 231.117171448 
19.778257993 4.20399485784 231.117171448 
19.7018759086 4.54853247573 231.117171448 
19.6194924522 4.8916845689 231.117171448 
19.5311327183 5.23334661008 231.117171448 
19.5206030345 5.59743786436 232.113366152 
19.419941279 5.93726655923 232.113366152 
19.3133640313 6.27528670824 232.113366152 
19.2009037557 6.61139534736 232.113366152 
19.1644942568 6.97529906518 233.109560857 
19.1212066016 7.33993672891 234.105755561 
20.0407163235 8.09696741844 247.05628672 
19.8161253554 8.41143823852 246.060092015 
19.507066197 8.68509716714 244.067702606 
18.56262071 8.65588386359 234.105755561 
18.2520576394 8.90211465897 232.113366152 
18.1715708611 9.25886870025 233.109560857 
18.0072138443 9.5745959045 233.109560857 
17.913599749 9.92966047338 234.105755561 
17.6620960586 10.1972054988 233.109560857 
17.5561474261 10.5487866902 234.105755561 
17.2954597659 10.8073913899 233.109560857 
17.0311158425 11.060124169 232.113366152 
16.9077516552 11.4044101617 233.109560857 
16.7061422938 11.6977539223 233.109560857 
16.4994440883 11.9875344398 233.109560857 
16.2877200008 12.2736634443 233.109560857 
16.9638697757 13.2536123217 246.060092015 
16.7299788669 13.5476538357 246.060092015 
16.4242267038 13.7815460652 245.063897311 
15.5892090002 13.5514760941 236.09814497 
15.5446369856 13.9964365811 239.086729084 
14.8518065591 13.8495160711 232.113366152 
14.6078373816 14.1066062718 232.113366152 
14.3594185228 14.3593994708 232.113366152 
14.1066256534 14.607818665 232.113366152 
13.8495357764 14.8517881837 232.113366152 
13.5882272038 15.0912337114 232.113366152 
13.3227795326 15.3260823109 232.113366152 
13.0532736205 15.5562624452 232.113366152 
12.7797915615 15.7817039992 232.113366152 
12.4487582202 15.933658738 231.117171448 
12.1687817637 16.1484925733 231.117171448 
11.936327458 16.4289178065 232.113366152 
12.247671545 17.4914575191 244.067702606 
11.9892752919 17.7747999353 245.063897311 
11.6772364995 17.9813342803 245.063897311 
11.269269651 18.0345670261 243.071507902 
10.9528069617 18.2284959869 243.071507902 
10.2843847356 17.8130404993 235.101950266 
9.92968424104 17.9135865744 234.105755561 
9.49278543914 17.8532934387 231.117171448 
9.1797569742 18.01624611 231.117171448 
8.9021388757 18.2520458281 232.113366152 
8.54540753289 18.325639746 231.117171448 
8.22427978518 18.4719864665 231.117171448 
7.93470135868 18.6929336334 232.113366152 
7.57460729814 18.7477568333 231.117171448 
7.21502657374 18.7957296823 230.120976743 
6.88589725544 18.9187864764 230.120976743 
6.55467042969 19.0360804345 230.120976743 
6.22144699119 19.1475758279 230.120976743 
6.1666297973 20.1700595843 241.079118493 
5.83769826051 20.3583894107 242.075313197 
5.50406420616 20.5413564182 243.071507902 
5.14473011373 20.6342869599 243.071507902 
4.78382888932 20.7209321085 243.071507902 
4.40334968614 20.7160143831 242.075313197 
4.04113503837 20.7897082226 242.075313197 
3.67768942379 20.8570693263 242.075313197 
3.31312355129 20.9180771753 242.075313197 
2.94754847095 20.9727131862 242.075313197 
2.58107554032 21.0209607162 242.075313197 
2.21381639041 21.0628050689 242.075313197 
1.83828666582 21.0114094917 241.079118493 
1.48346690254 21.2141785661 243.071507902 
1.09931834908 20.9757289359 240.082923788 
0.739157884307 21.1659251156 242.075313197 
0.365085719917 20.9141743418 239.086729084 
2.78686850413e-05 21.0045163055 240.082923788 
-0.351341588941 20.1298937364 230.120976743 
-0.74214328948 21.2530296576 243.071507902 
-1.11750771196 21.32387678 244.067702606 
-1.47733105713 21.1272391317 242.075313197 
-1.84582690565 21.098238396 242.075313197 
-2.21376049835 21.0628109433 242.075313197 
-2.55977679832 20.8479554866 240.082923788 
-2.89897441767 20.6274910323 238.090534379 
-3.14945974484 19.8850940673 230.120976743 
-3.67763407767 20.8570790853 242.075313197 
-4.05770982931 20.875273345 243.071507902 
-4.4214152687 20.8012772038 243.071507902 
-4.72495701218 20.4661790879 240.082923788 
-5.14467535878 20.6343006118 243.071507902 
-5.18820586268 19.3627677682 229.124782039 
-5.88569069231 20.5259637896 244.067702606 
-6.19205799436 20.2534233692 242.075313197 
-6.49072069138 19.9764924382 240.082923788 
-6.80999471763 19.777763977 239.086729084 
-6.88584705272 18.9188047486 230.120976743 
-7.6210143472 19.8535182425 243.071507902 
-7.93369605375 19.6366801498 242.075313197 
-8.20708615031 19.3347728755 240.082923788 
-8.6496220147 19.4274569949 243.071507902 
-8.50852546058 18.2466724977 230.120976743 
-9.32236080645 19.1137551329 243.071507902 
-9.53581857376 18.7151775133 240.082923788 
-10.0246587312 18.8537201035 244.067702606 
-9.84512915927 17.7611566434 232.113366152 
-10.6765367773 18.4923796971 244.067702606 
-10.9078702359 18.1538179812 242.075313197 
-11.0844804537 17.7389478001 239.086729084 
-11.0601015722 17.031130517 232.113366152 
-11.9404914252 17.7025763363 244.067702606 
-12.0976542099 17.2773085089 241.079118493 
-12.2436559789 16.8520125573 238.090534379 
-12.1687389122 16.1485248642 231.117171448 
-13.0389567806 16.6891685368 242.075313197 
-13.3830855052 16.5267984996 243.071507902 
-13.0532323405 15.5562970832 232.113366152 
-13.9517093677 16.0496682834 243.071507902 
-14.171371156 15.7389637504 242.075313197 
-13.7900564673 14.7880831967 231.117171448 
-14.7725630953 15.2974973732 243.071507902 
-14.7907781138 14.7908369869 239.086729084 
-14.6077999484 14.106645035 232.113366152 
-15.4891848214 14.4439570045 242.075313197 
-15.6093690108 14.0547964878 240.082923788 
-15.2602875329 13.2656204685 231.117171448 
-16.2906601321 13.669544204 243.071507902 
-16.5267452297 13.3831512881 243.071507902 
-16.0023217133 12.5024378926 232.113366152 
-16.8445314462 12.6933205683 241.079118493 
-16.9929844404 12.3461809899 240.082923788 
-16.7061112527 11.6977982535 233.109560857 
-17.6302735888 11.8918249009 243.071507902 
-17.981318787 11.677260357 245.063897311 
-17.2215189888 10.7612516555 232.113366152 
-18.4526021284 11.0874971039 246.060092015 
-18.0394636361 10.4151423746 238.090534379 
-17.7611174559 9.84519985542 232.113366152 
-18.6228188111 9.90198193398 241.079118493 
-18.0938901111 9.21934889908 232.113366152 
-19.1137180262 9.32243688648 243.071507902 
-18.7995670737 8.76643439502 237.094339675 
-18.5515961388 8.25975388119 232.113366152 
-19.4149673458 8.24121772879 241.079118493 
-18.9093652901 7.63993072577 233.109560857 
-19.9348546615 7.65232736101 244.067702606 
-19.6558725612 7.15420504601 239.086729084 
-19.2832934487 6.63982160466 233.109560857 
-20.47380602 6.65239689106 246.060092015 
-19.4199255239 5.93731809177 232.113366152 
-20.4421610137 5.8617488327 243.071507902 
-20.2887915444 5.43641820466 240.082923788 
-19.8731796371 4.95499184602 234.105755561 
-20.5510821075 4.74464444418 241.079118493 
-20.0340000291 4.25841002234 234.105755561 
-21.1319201919 4.10768381747 246.060092015 
-20.3420752011 3.58690926729 236.09814497 
-20.2294119472 3.20407636519 234.105755561 
-20.5411720475 2.88692657939 237.094339675 
-20.328909315 2.49612883228 234.105755561 
-20.8894457354 2.19562339538 240.082923788 
-20.40363908 1.78514015602 234.105755561 
-21.1272332512 1.47741515166 242.075313197 
-20.3664739822 1.06741496273 233.109560857 
-21.0788215665 0.736144049588 241.079118493 
-20.6527466842 0.360549550378 236.09814497 
40.1065861565 0.700062473973 227.490596859 
40.088259975 1.3999117025 227.490596859 
40.0577225418 2.09933450507 227.490596859 
40.0149831588 2.7981178311 227.490596859 
40.1330420954 3.51118323527 228.475404638 
40.2383478759 4.22921718333 229.460212417 
42.3990073874 5.20593906345 242.262713538 
41.9577775272 5.89677602981 240.293097981 
40.8194134763 6.46515440606 234.38425131 
39.6743044866 6.99564429113 228.475404638 
39.5461711837 7.68699032464 228.475404638 
39.5758451671 8.41209825638 229.460212417 
39.2538088984 9.06244793128 228.475404638 
39.2581589247 9.78814975381 229.460212417 
38.9136219744 10.4268643597 228.475404638 
38.8926427438 11.1522759187 229.460212417 
38.6920853283 11.8293470112 229.460212417 
38.4797419487 12.5028147761 229.460212417 
38.2556772867 13.172474069 229.460212417 
38.0199595945 13.8381209055 229.460212417 
37.6105462504 14.4373226842 228.475404638 
37.5138558544 15.1565674445 229.460212417 
39.1617505267 16.6231611862 241.27790576 
38.5484012996 17.1628376889 239.308290203 
37.1413474976 17.3192781073 232.414635752 
36.2091324869 17.6603567372 228.475404638 
36.2048453292 18.447271938 230.445020195 
35.8773821496 19.0763234759 230.445020195 
35.5389903903 19.6995641907 230.445020195 
35.1897731285 20.3168042375 230.445020195 
34.6809912829 20.8384203191 229.460212417 
34.4592908619 21.5325321446 230.445020195 
33.9326148286 22.0360742569 229.460212417 
33.5428645363 22.6249233471 229.460212417 
33.1428967798 23.206880678 229.460212417 
32.5923491295 23.6797013022 228.475404638 
32.3127992848 24.3494131375 229.460212417 
33.6617979004 26.2994484939 242.262713538 
33.0627328477 26.7736416793 241.27790576 
32.4574109839 27.2349689699 240.293097981 
30.9287210046 26.8858941662 232.414635752 
30.1966958449 27.1891932082 230.445020195 
29.3365856806 27.3567739546 227.490596859 
28.9795884687 27.9852269551 228.475404638 
28.4867656019 28.4867278058 228.475404638 
27.864639261 28.8546394788 227.490596859 
27.3568128782 29.3365493838 227.490596859 
26.8406533592 29.8095231067 227.490596859 
26.4302413853 30.4044703268 228.475404638 
25.8955852128 30.8611105119 228.475404638 
25.2437606584 31.1734003346 227.490596859 
24.6958655247 31.6092164817 227.490596859 
25.4990011434 33.8382624149 240.293097981 
24.8024910542 34.1376431201 239.308290203 
24.0037289317 34.2808184694 237.338674645 
23.0133793168 34.1186771703 233.399443531 
21.7523924209 33.4956853476 226.505789081 
21.2565191744 34.0174768786 227.490596859 
20.659595378 34.3832729596 227.490596859 
20.0563784793 34.7385955803 227.490596859 
19.4470522238 35.0833365061 227.490596859 
18.8318022178 35.4173907258 227.490596859 
18.2896505729 35.8953779401 228.475404638 
17.5842823449 36.0530353093 227.490596859 
17.0257794644 36.5118105436 228.475404638 
16.3153387688 36.644754897 227.490596859 
15.7411651013 37.0837592053 228.475404638 
15.8071158107 39.1238716136 239.308290203 
15.1841332366 39.5558991861 240.293097981 
14.491475577 39.8148740821 240.293097981 
13.7944036809 40.0617210022 240.293097981 
13.093129883 40.2963647546 240.293097981 
12.4386377475 40.6847942494 241.27790576 
11.678832254 40.7287605968 240.293097981 
10.966239231 40.9263809749 240.293097981 
10.2503057909 41.1115348019 240.293097981 
9.5312500137 41.2841656782 240.293097981 
8.84539458164 41.6140743839 241.27790576 
8.08464845606 41.59165207 240.293097981 
7.35754332376 41.7264139222 240.293097981 
6.62819701627 41.848465526 240.293097981 
5.89683169917 41.9577697034 240.293097981 
5.16367015304 42.0542931592 240.293097981 
4.41078432978 41.9653097437 239.308290203 
3.69285216377 42.2088842007 240.293097981 
2.94353045123 42.0936796772 239.308290203 
2.21753501057 42.3120503054 240.293097981 
1.47875079437 42.3443072757 240.293097981 
0.739516137115 42.3636657816 240.293097981 
5.62164588899e-05 42.3701199263 240.293097981 
-0.736373378201 42.1900461547 239.308290203 
-1.47257843638 42.1707689405 239.308290203 
-2.18107153942 41.6184159243 236.353866867 
-2.93130591749 41.9204624366 238.323482424 
-3.49599580597 39.9600594835 227.490596859 
-4.41067297105 41.965321448 239.308290203 
-5.14239643294 41.8819531447 239.308290203 
-5.89672036044 41.957785351 240.293097981 
-6.57375739408 41.505462761 238.323482424 
-7.26697236207 41.2134035266 237.338674645 
-8.05140473603 41.4212158448 239.308290203 
-8.5925617505 40.4251236313 234.38425131 
-8.98427174736 38.9154259145 226.505789081 
-10.2081876949 40.9430719936 239.308290203 
-10.9211874708 40.7586788858 239.308290203 
-11.5829969292 40.3949490335 238.323482424 
-12.1846822401 39.8545246593 236.353866867 
-12.7710633721 39.3055044287 234.38425131 
-13.1158893059 38.0915072327 228.475404638 
-14.4913699246 39.8149125364 240.293097981 
-15.0595690233 39.2317104663 238.323482424 
-15.6769131278 38.80190604 237.338674645 
-16.2160126741 38.2027087638 235.369059088 
-16.3152415286 36.6447981911 227.490596859 
-17.8329347681 38.243021296 239.308290203 
-18.3454068772 37.6138214499 237.338674645 
-19.1567325132 37.5973647974 239.308290203 
-18.913230781 35.5707629517 228.475404638 
-20.5413767402 37.0577779176 240.293097981 
-20.9245237993 36.242486412 237.338674645 
-21.2855497188 35.4252468053 234.38425131 
-21.2564289059 34.0175332846 227.490596859 
-22.981781563 35.3889807211 239.308290203 
-23.6930061699 35.1264646841 240.293097981 
-23.7048374918 33.8541491923 234.38425131 
-23.5775905672 32.4518961487 227.490596859 
-25.3944076154 33.699648398 239.308290203 
-25.551046812 32.7039757637 235.369059088 
-25.462237919 31.443367471 229.460212417 
-27.3465444543 32.5904694434 241.27790576 
-27.4554686626 31.5840269452 237.338674645 
-27.0729601812 30.0676860565 229.460212417 
-29.0147189722 31.114599067 241.27790576 
-29.1914466303 30.2287473924 238.323482424 
-29.3462022083 29.3463190177 235.369059088 
-28.9795142073 27.9853038549 228.475404638 
-30.7334899005 28.6595590304 238.323482424 
-30.7128052975 27.6540472409 234.38425131 
-30.2733816591 26.3163580976 227.490596859 
-32.5903605934 27.3466741767 241.27790576 
-31.9830646813 25.8994851884 233.399443531 
-31.6091837153 24.6959074636 227.490596859 
-33.2835035242 25.0810288917 236.353866867 
-33.1542222638 24.0880599921 232.414635752 
-32.8583473424 23.0077671781 227.490596859 
-34.4065677049 23.2076306999 235.369059088 
-33.6412897756 21.8470126752 227.490596859 
-35.7845888665 22.3608014155 239.308290203 
-35.722852518 21.4645620754 236.353866867 
-34.888952385 20.1432489191 228.475404638 
-36.7539445469 20.3731510947 238.323482424 
-36.4906192471 19.4025113067 234.38425131 
-36.0500750255 18.3685331047 229.460212417 
-37.7698220727 18.421679236 238.323482424 
-36.8265447465 17.1726022866 230.445020195 
-38.5483557563 17.1629399804 239.308290203 
-38.3624879172 16.2840147971 236.353866867 
-37.6748191355 15.2217170638 230.445020195 
-39.0695362648 14.9974949112 237.338674645 
-38.1830985083 13.8976133046 230.445020195 
-40.3900773121 13.9075261529 242.262713538 
-39.3054535946 12.771219823 234.38425131 
-38.8581142552 11.8802198544 230.445020195 
-40.3949029284 11.5831577165 238.323482424 
-39.0813253156 10.4719114464 229.460212417 
-40.7745415198 10.1663409905 238.323482424 
-39.4229821988 9.1016148193 229.460212417 
-41.274356014 8.77324204155 239.308290203 
-41.2507262503 8.01843557703 238.323482424 
-39.6742859229 6.99574957043 228.475404638 
-41.6769466632 6.60108757116 239.308290203 
-40.0662234341 5.63104408551 229.460212417 
-41.5372254108 5.10023751664 237.338674645 
-40.2383366531 4.22932395938 229.460212417 
-41.8629048805 3.66263842723 238.323482424 
-40.8811007495 2.8587916338 232.414635752 
-40.5779470614 2.12670626679 230.445020195 
-40.6088829647 1.41820013328 230.445020195 
-40.8010706069 0.712293037202 231.429827974 
61.0719412815 1.06601379975 227.958508511 
61.0440352544 2.13170288193 227.958508511 
60.9975346542 3.19674262785 227.958508511 
60.9324536454 4.26080861664 227.958508511 
60.8488120523 5.32357672405 227.958508511 
64.3502493146 6.76347798851 241.481470881 
63.9655199709 7.85397158211 240.515544997 
63.5624071118 8.93310610674 239.549619114 
60.3292340279 9.55520376147 227.958508511 
59.8983976516 10.5616945023 226.992582628 
59.95901163 11.6548411257 227.958508511 
59.7464747451 12.6994941967 227.958508511 
59.5157385359 13.7402788853 227.958508511 
59.0157424678 14.7142642683 226.992582628 
58.9999548045 15.8089762598 227.958508511 
58.7150643948 16.8362588016 227.958508511 
58.4122888378 17.8584128645 227.958508511 
58.091720362 18.8751270911 227.958508511 
57.5087385787 19.80182868 226.992582628 
57.1543904636 20.8024778024 226.992582628 
57.0242608207 21.8895425984 227.958508511 
59.2732502988 23.9479252492 238.58369323 
59.3227621888 25.1809948384 240.515544997 
58.4013728646 26.0019417016 238.58369323 
57.9386819962 27.0172251215 238.58369323 
54.666844054 26.6627754211 226.992582628 
54.1931888426 27.6127817334 226.992582628 
53.9315494031 28.6758849261 227.958508511 
53.1965045005 29.4872742197 226.992582628 
52.6737789692 30.4111894061 226.992582628 
52.1350085215 31.3258410652 226.992582628 
51.5803572721 32.2309505858 226.992582628 
51.0099941727 33.1262422632 226.992582628 
50.4240929612 34.0114433834 226.992582628 
49.610820057 34.7378320322 226.026656744 
49.2063947641 35.7504985462 226.992582628 
48.368266706 36.4480619084 226.026656744 
47.9287462559 37.4459973071 226.992582628 
49.8827456184 40.3942034471 239.549619114 
49.1701727866 41.2586244402 239.549619114 
48.2472891148 41.9406773645 238.58369323 
47.1232957368 42.4299532298 236.651841463 
44.672020478 41.6572800808 227.958508511 
43.565839949 42.0709879913 226.026656744 
43.0079779825 43.0079209198 226.992582628 
42.2508365882 43.751962694 226.992582628 
41.4808252016 44.4826772191 226.992582628 
40.6981783751 45.1998419127 226.992582628 
39.7333339377 45.7079053908 226.026656744 
39.0959357844 46.5926521796 226.992582628 
38.276828078 47.26787349 226.992582628 
37.2867159587 47.7247446724 226.026656744 
36.6038873058 48.5749201347 226.992582628 
35.750563833 49.2063473305 226.992582628 
34.7378978556 49.610773967 226.026656744 
35.8929980888 53.2134632471 239.549619114 
34.8178661954 53.6147136365 238.58369323 
34.014011564 54.4336936087 239.549619114 
32.9255311859 54.7971780373 238.58369323 
31.8347650475 55.1393178742 237.617767346 
30.4911693044 55.0074088791 234.719989696 
29.1619896429 54.8456047689 231.822212045 
27.4953521318 53.9625430477 226.026656744 
26.5493890253 54.4341839602 226.026656744 
25.5953387314 54.8892437209 226.026656744 
24.6334918625 55.3275837145 226.026656744 
23.7652702155 55.9873143093 226.992582628 
22.6875826351 56.1535754445 226.026656744 
21.7968656381 56.782603677 226.992582628 
20.6255106249 56.6679427535 225.060730861 
19.6333781314 57.0192764563 225.060730861 
18.6352651308 57.3532415644 225.060730861 
17.7071472269 57.9172459472 226.026656744 
17.4070599825 60.7053824651 235.685915579 
16.4119422138 61.2499313057 236.651841463 
15.3404848071 61.5270303043 236.651841463 
14.2061326928 61.5332023495 235.685915579 
13.1838792358 62.0249245101 236.651841463 
12.099387993 62.2455680541 236.651841463 
11.0112111656 62.4472510272 236.651841463 
9.91968022231 62.6299119948 236.651841463 
8.89716951181 63.3060952784 238.58369323 
7.72788686968 62.9379511639 236.651841463 
6.68240060767 63.5780374567 238.58369323 
5.50412042262 62.9114763445 235.685915579 
4.38727177604 62.7397663648 234.719989696 
3.30519045937 63.065243308 235.685915579 
2.204047735 63.1133216608 235.685915579 
1.09319893553 62.6246163044 233.754063812 
8.03554841243e-05 60.5636065721 226.026656744 
-1.11561607688 63.9185162961 238.58369323 
-2.22194485041 63.6306498658 237.617767346 
-3.34565864012 63.840644522 238.58369323 
-4.44126708413 63.5143431671 237.617767346 
-5.52651066774 63.1693249293 236.651841463 
-6.57401761587 62.5484510562 234.719989696 
-7.63309471703 62.1673026295 233.754063812 
-8.4287382853 59.9742178936 226.026656744 
-10.0004896529 63.1412031199 238.58369323 
-11.1009315416 62.9570539625 238.58369323 
-12.0992228188 62.2456001607 236.651841463 
-13.1299035669 61.7717963945 235.685915579 
-14.0895270367 61.0288692265 233.754063812 
-14.7141859665 59.0157619906 226.992582628 
-16.5457533932 61.7499746508 238.58369323 
-17.620918144 61.4518068773 238.58369323 
-18.6150444889 60.8874105209 237.617767346 
-19.7548192956 60.7994115047 238.58369323 
-20.4758545863 59.466510038 234.719989696 
-20.7138811108 56.9112077745 226.026656744 
-23.0024906815 59.9238300262 239.549619114 
-23.9478466057 59.2732820727 238.58369323 
-24.6752752431 58.1315748037 235.685915579 
-25.8965935096 58.164964419 237.617767346 
-25.7045742448 55.1238813481 226.992582628 
-27.7972859911 56.9931296185 236.651841463 
-28.6702178662 56.2687107101 235.685915579 
-29.7693825239 55.9883005308 236.651841463 
-29.3617261765 52.9701753533 226.026656744 
-31.9640277495 55.3635462625 238.58369323 
-32.5254823056 54.1317115771 235.685915579 
-33.4652563592 53.5558196118 235.685915579 
-32.9852121383 50.7929741324 226.026656744 
-35.4586690971 52.5698460911 236.651841463 
-35.9253821476 51.3069641348 233.754063812 
-35.5983037562 48.9970530819 226.026656744 
-38.4728864966 51.0554436798 238.58369323 
-38.8800333046 49.7643668473 235.685915579 
-39.4168597485 48.6759572967 233.754063812 
-39.0958121465 46.592755924 226.992582628 
-41.7708132962 48.0520113819 237.617767346 
-42.2567074795 46.9310118202 235.685915579 
-41.6572208101 44.6720757486 227.958508511 
-44.2284137878 45.8000442695 237.617767346 
-44.6549735366 44.6551512809 235.685915579 
-43.7519066358 42.2508946381 226.992582628 
-46.5647874762 43.4225426313 237.617767346 
-47.315522668 42.6032622685 237.617767346 
-45.9031853766 39.9031954143 226.992582628 
-48.7735305344 40.926023023 237.617767346 
-48.8769400732 39.5799338836 234.719989696 
-47.9286468894 37.4461244902 226.992582628 
-50.8485889614 38.3173282198 237.617767346 
-50.8814079784 36.9676718131 234.719989696 
-49.8227395344 34.8864165151 226.992582628 
-52.7842751759 35.6036084607 237.617767346 
-52.3122868547 33.9721574769 232.788137929 
-51.7997622623 32.3682410224 227.958508511 
-53.9097313663 32.3923957304 234.719989696 
-52.6736982702 30.4113291806 226.992582628 
-56.13920728 31.1186341045 239.549619114 
-55.5311356528 29.5265881919 234.719989696 
-54.4237245718 27.7304273506 227.958508511 
-57.4582681087 28.0244313176 238.58369323 
-56.296625396 26.2517041622 231.822212045 
-55.5639935566 24.7388369173 226.992582628 
-57.4167453166 24.3721192523 232.788137929 
-56.6334901747 22.8815687388 227.958508511 
-59.1988545339 22.7244703802 236.651841463 
-59.586434635 21.6878477418 236.651841463 
-57.7534038455 19.8862450347 227.958508511 
-61.0454840177 19.8350413058 239.549619114 
-58.4122414487 17.8585678667 227.958508511 
-61.7005291952 17.6925034856 239.549619114 
-58.9999128538 15.8091328214 227.958508511 
-61.5270099506 15.3405664409 236.651841463 
-61.0288131443 14.0897699549 233.754063812 
-59.9996039314 12.7534648271 228.924434395 
-61.9914885231 12.0500849859 235.685915579 
-60.4081429834 10.6517415625 228.924434395 
-62.3742665932 9.87927448947 235.685915579 
-60.7430841427 8.53704081345 228.924434395 
-62.9379409106 7.72797037543 236.651841463 
-61.0040193358 6.41193901278 228.924434395 
-63.6849707102 5.57187853127 238.58369323 
-61.7070072837 4.31513518314 230.856286162 
-61.2559902651 3.21045069574 228.924434395 
-63.1133187364 2.20413147344 235.685915579 
-61.3307178528 1.07069355395 228.924434395 
82.0722660166 1.43257552183 225.526253191 
82.034764165 2.86471466803 225.526253191 
81.6307226309 4.2780812742 224.586560469 
81.5436271474 5.7020810487 224.586560469 
81.431692727 7.124343917 224.586560469 
85.0365622031 8.93769523515 234.923180407 
86.2255086119 10.5871521813 238.681951294 
82.9793827222 11.6619817312 230.224716799 
80.736360861 12.787372348 224.586560469 
80.5008941119 14.1944673665 224.586560469 
79.9051700435 15.5319782074 223.646867748 
79.6219299522 16.9241489422 223.646867748 
79.3144362906 18.3111644259 223.646867748 
78.9827827242 19.692602161 223.646867748 
78.6270702777 21.0680413488 223.646867748 
78.5761779233 22.531336392 224.586560469 
78.1709847028 23.8992470013 224.586560469 
77.7419798834 25.2598776808 224.586560469 
77.2892941438 26.6128139698 224.586560469 
76.4916717973 27.8406661627 223.646867748 
75.9941355539 29.1713885194 223.646867748 
79.9130655526 32.2869441213 236.80256585 
78.7077480463 33.4094253903 234.923180407 
76.2379816502 33.9433040198 229.285024077 
75.6339784187 35.2686694169 229.285024077 
73.1625035217 35.6837025148 223.646867748 
72.8333365774 37.1104020409 224.586560469 
72.1745784538 38.3758658751 224.586560469 
71.4938352915 39.6296400685 224.586560469 
70.7913144512 40.87134271 224.586560469 
69.7740616011 41.9244424461 223.646867748 
69.0317529002 43.1357814146 223.646867748 
68.2684164942 44.3339808284 223.646867748 
67.7678323179 45.709930645 224.586560469 
66.6795969783 46.6895051755 223.646867748 
66.1312978283 48.0471466809 224.586560469 
69.1067786211 52.0756338197 237.742258572 
68.1874089825 53.2737810313 237.742258572 
66.9814693521 54.2404606373 236.80256585 
63.9286216212 53.6424185836 229.285024077 
62.2083190822 54.0768007464 226.465945912 
61.000904526 54.92539275 225.526253191 
59.2826214109 55.2818685524 222.707175026 
58.5548202284 56.5456592034 223.646867748 
57.5590450675 57.5589686985 223.646867748 
56.3081497638 58.3087168627 222.707175026 
55.2819472082 59.2825480631 222.707175026 
54.2389052645 60.2383212556 222.707175026 
53.1793416528 61.1757453029 222.707175026 
52.1035791257 62.0945346571 222.707175026 
51.2271856464 63.2602086424 223.646867748 
49.9047729089 63.8750955608 222.707175026 
48.7823989957 64.7363247351 222.707175026 
50.6606823211 69.7283304939 236.80256585 
49.2398655674 70.3216945073 235.862873129 
48.0050843527 71.1703376118 235.862873129 
46.755680349 71.9973015785 235.862873129 
45.1295478083 72.2222362239 233.983487685 
42.4529955474 70.6535102529 226.465945912 
40.3584060501 69.9026669986 221.767482304 
38.9664757641 70.2972340464 220.827789583 
37.8942550045 71.2685711242 221.767482304 
36.7999505697 72.2238037634 222.707175026 
35.3839357243 72.5476456206 221.767482304 
34.1124166605 73.1541305875 221.767482304 
32.969618958 74.0507826951 222.707175026 
31.805872388 74.9297339403 223.646867748 
30.4933251412 75.4734103414 223.646867748 
29.048920065 75.6747939214 222.707175026 
27.7237896361 76.1702414346 222.707175026 
27.7264276682 80.5231190362 233.983487685 
26.2111934956 80.6694673616 233.043794964 
24.9993208349 81.7687792817 234.923180407 
23.7570001795 82.8501644487 236.80256585 
22.1304051164 82.5914310133 234.923180407 
20.8511014817 83.6288011017 236.80256585 
19.3114650615 83.6467118102 235.862873129 
17.9197989714 84.3055491147 236.80256585 
16.3152145223 83.9339804997 234.923180407 
14.9666639834 84.8795839759 236.80256585 
13.3225204506 84.1144335974 233.983487685 
11.9000937019 84.6728237236 234.923180407 
10.4205379773 84.8676127607 234.923180407 
8.93780806122 85.0365503445 234.923180407 
7.51197445171 85.8610216952 236.80256585 
5.94077456422 84.9554865099 233.983487685 
4.51089445405 86.0708814753 236.80256585 
2.96031762837 84.7692523761 233.043794964 
1.49834911725 85.8339095545 235.862873129 
0.00010754828051 81.0587083044 222.707175026 
-1.50408996021 86.1758813132 236.80256585 
-2.99590025835 85.7946948309 235.862873129 
-4.49276658874 85.7293422806 235.862873129 
-5.96440675421 85.2966890301 234.923180407 
-7.45212957515 85.1796047903 234.923180407 
-8.90183207943 84.6964277652 233.983487685 
-10.3786315223 84.5281698506 233.983487685 
-11.7570705867 83.6567810376 232.104102242 
-12.6802588238 80.0607596026 222.707175026 
-14.9070481178 84.5427997874 235.862873129 
-16.4455117302 84.6054959837 236.80256585 
-17.7773564078 83.6365046292 234.923180407 
-19.0804314268 82.6470009464 233.043794964 
-20.4371716372 81.9695537247 232.104102242 
-21.5990614896 80.6092939843 229.285024077 
-22.3426862619 77.9186663297 222.707175026 
-25.0991002694 82.0959210019 235.862873129 
-26.2109794319 80.6695369151 233.043794964 
-27.6148637358 80.1998062948 233.043794964 
-28.6594048114 78.7414648754 230.224716799 
-29.048719255 75.6748710051 222.707175026 
-32.2868380931 79.9131083907 236.80256585 
-33.1420463936 78.0781300347 233.043794964 
-34.3605373291 77.1753794731 232.104102242 
-34.2567658552 73.4641966208 222.707175026 
-37.6327099421 77.1588246534 235.862873129 
-38.6630378498 75.8808078159 233.983487685 
-39.4997466447 74.2885306492 231.164409521 
-39.2979172174 70.8956126595 222.707175026 
-43.0943711032 74.641945218 236.80256585 
-44.0381826367 73.2921399434 234.923180407 
-44.5856289773 71.3522071117 231.164409521 
-44.3338902502 68.2684753163 223.646867748 
-48.0048954957 71.1704649973 235.862873129 
-48.651156903 69.4813252671 233.043794964 
-49.2532612547 67.7915631228 230.224716799 
-48.9880593942 65.0096037791 223.646867748 
-52.431418773 67.1094167462 233.983487685 
-53.1641739141 65.6525424823 232.104102242 
-52.9827968728 63.1426842757 226.465945912 
-56.5449501601 65.0477779644 236.80256585 
-56.7561555414 63.0343433141 233.043794964 
-55.9815593888 60.0331086162 225.526253191 
-60.1093786673 62.2453298276 237.742258572 
-59.9773331836 59.9775719169 233.043794964 
-58.8006982052 56.7834020399 224.586560469 
-63.034530077 58.7808882604 236.80256585 
-63.0341174022 56.7564064418 233.043794964 
-61.9500503745 53.8525800713 225.526253191 
-66.0244949899 55.4013616081 236.80256585 
-66.4497275991 53.8101571215 234.923180407 
-64.4140591308 50.3259956973 224.586560469 
-69.6529379864 52.4874837397 239.621644015 
-68.3447659903 49.6556007323 232.104102242 
-67.2398047899 47.0820323855 225.526253191 
-71.1702739188 48.0051787811 235.862873129 
-72.8577643187 47.3146098492 238.681951294 
-69.6117362373 43.4984516939 225.526253191 
-74.1714682298 44.5669360597 237.742258572 
-70.7912059951 40.8715305609 224.586560469 
-75.0833734842 41.6196120322 235.862873129 
-73.9863881666 39.3394730635 230.224716799 
-71.0047886093 36.1789485664 218.948404139 
-74.392029148 36.2836260135 227.405638634 
-68.5044612598 31.944345476 207.67209148 
-70.6137848226 31.439477169 212.370555088 
-67.0589258012 28.4650083795 200.154549707 
-61.8374249041 24.984108947 183.240080718 
-62.9026447668 24.1462322049 185.119466161 
-58.1721816109 21.1730979595 170.084382615 
-62.0900875172 21.3794964864 180.421002553 
-58.5503946179 19.024331028 169.144689893 
-56.2568973255 17.1996073758 161.62714812 
-58.5211256396 16.7808158676 167.26530445 
-55.8317875159 14.960227936 158.808069955 
-58.0755371087 14.4800086388 164.446226285 
-55.3201191521 12.7717992957 155.98899179 
-59.2145951784 12.5866040337 166.325611728 
-59.0895070323 11.4859894233 165.385919007 
-56.2495524116 9.91845909679 156.928684512 
-58.1031306764 9.20278198049 161.62714812 
-56.2227444685 7.90173681409 155.98899179 
-58.7283784628 7.21109020078 162.566840842 
-56.4642615546 5.93477946915 155.98899179 
-59.2849842886 5.18691816139 163.506533563 
-59.7076657022 4.17532238746 164.446226285 
-57.0390325669 2.98943827365 156.928684512 
-58.4497640511 2.04126430267 160.687455398 
-56.766648032 0.991015371337 155.98899179 
104.793283145 1.82917201599 224.764369813 
104.745399221 3.6577868494 224.764369813 
104.665608887 5.48528748738 224.764369813 
104.975524903 7.34059756801 225.670677756 
104.831425665 9.17155354057 225.670677756 
109.69902725 11.5298225581 236.546373069 
109.061628802 13.3910727795 235.640065127 
104.207756462 14.6454325429 225.670677756 
104.353702126 16.5279885141 226.576985699 
103.216960804 18.199919367 224.764369813 
102.883608266 19.9985302655 224.764369813 
102.518916437 21.7910494283 224.764369813 
102.122996406 23.5769308376 224.764369813 
101.695968773 25.3556304975 224.764369813 
101.237963615 27.1266065998 224.764369813 
100.749120445 28.8893196888 224.764369813 
100.229588169 30.6432328261 224.764369813 
99.2775914722 32.2572157385 223.85806187 
99.0990986152 34.1225250565 224.764369813 
98.4884856949 35.8468443254 224.764369813 
97.8478722786 37.5602443166 224.764369813 
102.27143292 41.3203024696 236.546373069 
99.9786307698 42.4383709132 232.921141298 
95.7480257526 42.6297270346 224.764369813 
95.7554961643 44.651478207 226.576985699 
94.5817905273 46.1305766483 225.670677756 
93.7622963939 47.7742292056 225.670677756 
92.914241405 49.4033292945 225.670677756 
91.6682538301 50.8124915971 224.764369813 
91.1334907831 52.6158916956 225.670677756 
90.2013375831 54.1983754319 225.670677756 
89.2417082283 55.7643498459 225.670677756 
88.6093323601 57.5435119753 226.576985699 
87.2411985823 58.8448678405 225.670677756 
86.2009276648 60.358473067 225.670677756 
85.1343991539 61.853692549 225.670677756 
88.429669623 66.636460069 237.452681012 
87.2532357763 68.1696202624 237.452681012 
86.0502237937 69.6820153643 237.452681012 
80.6123245449 67.6416907884 225.670677756 
79.100583669 68.7610043978 224.764369813 
77.8884923051 70.1310261511 224.764369813 
76.9617587605 71.7679098883 225.670677756 
75.697515457 73.1001460661 225.670677756 
74.4102139959 74.4101152689 225.670677756 
72.806671214 75.3934127713 224.764369813 
71.479787053 76.652580553 224.764369813 
70.1311294931 77.8883992555 224.764369813 
68.4838468103 78.7815388387 223.85806187 
67.6417977444 80.6122347982 225.670677756 
65.9586569646 81.4520327186 224.764369813 
64.7872682113 82.9237907899 225.670677756 
63.3301823353 84.0418538981 225.670677756 
64.8347117943 89.2371757414 236.546373069 
63.5098389909 90.701293439 237.452681012 
61.6808864153 91.4455118569 236.546373069 
60.0755492415 92.5080632761 236.546373069 
58.4519125044 93.5424358905 236.546373069 
55.2868183055 92.012536068 230.20221747 
53.0386311862 91.8654163217 227.483293641 
50.812613222 91.6681864123 224.764369813 
49.2050451325 92.5410265562 224.764369813 
47.582488735 93.3856778546 224.764369813 
45.9454382749 94.2018830189 224.764369813 
44.1157859918 94.6063716778 223.85806187 
42.6298540725 95.7479691916 224.764369813 
40.7871999236 96.0883575576 223.85806187 
39.1040161924 96.7855570493 223.85806187 
37.4089210191 97.4532747726 223.85806187 
35.7024307453 98.0913073345 223.85806187 
33.9850651837 98.6994603845 223.85806187 
33.9551025889 104.502682814 235.640065127 
32.1261093171 105.079364327 235.640065127 
30.5203096004 106.436530299 237.452681012 
28.5487071797 106.544754475 236.546373069 
26.5826573027 106.616706186 235.640065127 
24.8129609401 107.47618507 236.546373069 
22.8455976491 107.479478856 235.640065127 
21.0469839807 108.27667271 236.546373069 
19.2274788486 109.043699209 237.452681012 
17.2553645567 108.945242125 236.546373069 
15.3513814464 109.229796647 236.546373069 
13.4427221645 109.48107877 236.546373069 
11.4857919832 109.278709224 235.640065127 
9.61370191375 109.883529809 236.546373069 
7.66502642866 109.612987721 235.640065127 
5.7287315585 109.308027487 234.733757184 
3.83492223595 109.813719902 235.640065127 
1.91782610624 109.863923333 235.640065127 
0.000144667645913 109.035425351 233.827449241 
-1.9027843065 109.01882128 233.827449241 
-3.77563651482 108.124288076 232.014833355 
-5.66208889557 108.041926364 232.014833355 
-7.25201903054 103.710769164 222.951753927 
-9.53974434838 109.041535738 234.733757184 
-11.4413269946 108.858436857 234.733757184 
-13.3394245076 108.642178698 234.733757184 
-15.2922751524 108.811332258 235.640065127 
-17.05674126 107.693043225 233.827449241 
-18.7868721747 106.546565111 232.014833355 
-20.5628645517 105.787608363 231.108525413 
-21.6151802341 101.692179661 222.951753927 
-24.7176080191 107.064464511 235.640065127 
-26.4801344841 106.206712199 234.733757184 
-28.1109007071 104.91195927 232.921141298 
-30.1705612015 105.217871463 234.733757184 
-31.5080260472 103.05869093 231.108525413 
-32.1264885356 98.8757005289 222.951753927 
-35.6358868356 103.494670432 234.733757184 
-37.1476024532 102.062713899 232.921141298 
-38.6202790145 100.609758625 231.108525413 
-40.2119630697 99.5285742794 230.20221747 
-40.4566862809 95.3104215323 222.045445985 
-44.5204290287 99.9949730612 234.733757184 
-46.2587998008 99.2027554023 234.733757184 
-47.2420282939 96.8609324977 231.108525413 
-47.5822409275 93.3858041187 224.764369813 
-51.5856769648 97.0189550513 235.640065127 
-52.6563672695 94.9949941963 232.921141298 
-53.8836206785 93.3295500054 231.108525413 
-54.1982557532 90.2014094932 225.670677756 
-58.4516642809 93.5425909976 236.546373069 
-59.1546094523 91.0904721523 232.921141298 
-60.0263736171 88.9931095219 230.20221747 
-61.0855678369 87.2395741064 228.389601584 
-61.1083557426 84.1087645798 222.951753927 
-65.3646568107 86.7421672336 232.921141298 
-66.868559753 85.5881864099 232.921141298 
-65.6924793692 81.123771424 223.85806187 
-70.0864603564 83.5261160128 233.827449241 
-71.810778052 82.6091725777 234.733757184 
-59.3850556044 65.9540440502 190.324667987 
-57.3566013951 61.5076664352 180.355280616 
-53.7241299216 55.6331850505 165.854353531 
-55.8822212582 55.8824436914 169.479585303 
-58.6730242788 56.6601082677 174.917432959 
-56.8711990781 53.0334658506 166.760661474 
-54.9615063952 49.4877651053 158.603889989 
-51.9893765986 45.1938626233 147.728194675 
-55.6838913607 46.724528548 155.884966161 
-54.8486889082 44.4157812935 151.353426447 
-54.6164160329 42.6712049413 148.634502618 
-59.7405352101 45.0179197187 160.416505875 
-78.9799529697 57.382550861 209.357134785 
-86.2007674978 60.3587018087 225.670677756 
-89.3432362254 60.2630535436 231.108525413 
-87.5458695069 56.8532221426 223.85806187 
-92.825558656 58.0041282894 234.733757184 
-93.4614778745 56.1576008658 233.827449241 
-90.4013563734 52.19351398 223.85806187 
-96.1036731392 53.2714155653 235.640065127 
-93.6604083833 49.8003917209 227.483293641 
-93.3856147223 47.5826126386 224.764369813 
-98.0002826255 47.7982069413 233.827449241 
-95.3723561666 44.4731253734 225.670677756 
-100.766956438 44.864617217 236.546373069 
-98.8114537412 41.9432435746 230.20221747 
-97.1773493167 39.2624609818 224.764369813 
-101.398699841 38.9235867697 232.921141298 
-98.4883905718 35.8471056733 224.764369813 
-103.494528587 35.6362987839 234.733757184 
-102.09103843 33.1716587523 230.20221747 
-100.229506854 30.6434987942 224.764369813 
-106.03024366 30.4039605495 236.546373069 
-101.237891632 27.1268752437 224.764369813 
-107.026735035 26.6850402949 236.546373069 
-103.770077936 23.9574792789 228.389601584 
-102.932241106 21.8791897032 225.670677756 
-104.957820423 20.4020049553 229.295909527 
-103.216912508 18.2001932624 224.764369813 
-106.440731433 16.8588307345 231.108525413 
-104.207717599 14.6457090675 225.670677756 
-108.222657935 13.288351706 233.827449241 
-104.235061955 10.9558168056 224.764369813 
-108.199478478 9.46650904448 232.921141298 
-106.240270549 7.42932042068 228.389601584 
-104.665594331 5.48556522696 224.764369813 
-107.279552164 3.74656636847 230.20221747 
-105.215831832 1.83682690926 225.670677756 
129.480177371 2.26008299353 224.300636853 
129.421013092 4.51947754504 224.300636853 
129.322425986 6.77749542224 224.300636853 
129.184446083 9.03344881217 224.300636853 
129.007115412 11.2866505307 224.300636853 
135.254875419 14.215848151 235.558969977 
131.512266017 16.1476620602 229.496790603 
128.734752456 18.0924740829 225.166662478 
127.905544816 20.2582307339 224.300636853 
127.040106125 22.4005790311 223.434611229 
127.120626886 24.7097253586 224.300636853 
126.670022026 26.9245209273 224.300636853 
126.180832315 29.13111504 224.300636853 
125.653206765 31.3288355478 224.300636853 
125.087306096 33.517013005 224.300636853 
124.483302686 35.6949808725 224.300636853 
123.84138052 37.8620757215 224.300636853 
123.161735134 40.0176374349 224.300636853 
122.444573554 42.1610094089 224.300636853 
121.220268232 44.1205289505 223.434611229 
120.898586987 46.4085764875 224.300636853 
125.633332518 50.7591137787 234.692944352 
124.728330049 52.9439850622 234.692944352 
120.13115458 53.4857850891 227.764739353 
117.366788686 54.7289797155 224.300636853 
116.843158357 56.9881606426 225.166662478 
116.276285918 59.2456685498 226.032688103 
114.783124337 61.0312090304 225.166662478 
113.700501775 63.0251537435 225.166662478 
112.583244997 64.9999004167 225.166662478 
111.431694331 66.954847524 225.166662478 
110.246200547 68.8893995706 225.166662478 
109.446459856 71.0752863791 226.032688103 
107.774838311 72.6949677446 225.166662478 
106.489722657 74.5648246609 225.166662478 
105.172169257 76.4119684477 225.166662478 
109.413026036 82.4485353336 237.291021227 
107.563432549 84.0376667496 236.424995602 
105.30324614 85.2727871225 234.692944352 
101.500861184 85.1692331879 229.496790603 
98.4895765221 85.6155781695 226.032688103 
96.9803795022 87.3214171919 226.032688103 
95.4416413693 89.0006573096 226.032688103 
93.8738308369 90.6527870107 226.032688103 
91.9238721202 91.9237501562 225.166662478 
89.9582532358 93.1543717809 224.300636853 
87.9777864244 94.3444942803 223.434611229 
86.6524152452 96.2371198618 224.300636853 
84.9596497733 97.7347543995 224.300636853 
83.2410048128 99.2026180345 224.300636853 
81.8116641253 101.028836089 225.166662478 
79.7281782096 102.047253302 224.300636853 
81.545957723 108.214965001 234.692944352 
79.6449279429 109.621655361 234.692944352 
78.0064259178 111.404529435 235.558969977 
76.0502696968 112.748960715 235.558969977 
72.7093495597 111.962373957 231.228841853 
71.0092241784 113.638297119 232.094867478 
66.4399569451 110.574439299 223.434611229 
64.5000494085 111.717134458 223.434611229 
62.2980895476 112.388490252 222.568585604 
60.5618893138 113.900096874 223.434611229 
58.3378408656 114.494196471 222.568585604 
56.3307581809 115.494893329 222.568585604 
54.3065166307 116.460409384 222.568585604 
52.4691014275 117.84722271 223.434611229 
50.2090283824 118.284733467 222.568585604 
48.1370298168 119.142985789 222.568585604 
46.0503682704 119.964946066 222.568585604 
43.9496793594 120.750363919 222.568585604 
43.9518007887 127.644863923 233.826918728 
41.7173985645 128.392487068 233.826918728 
39.3241025831 128.622848829 232.960893103 
37.073337003 129.289558621 232.960893103 
34.6818685869 129.433923227 232.094867478 
32.6595776496 130.989786114 233.826918728 
30.3685183905 131.53982351 233.826918728 
28.2761212585 133.027939283 235.558969977 
25.9501589725 133.501164461 235.558969977 
23.3558182208 132.45651377 232.960893103 
21.0405780614 132.843954923 232.960893103 
18.6493416532 132.695797019 232.094867478 
16.3306422468 133.001062456 232.094867478 
14.0592331843 133.763075051 232.960893103 
11.7226063182 133.988069566 232.960893103 
9.31265095361 133.174686888 231.228841853 
6.98701579442 133.316931804 231.228841853 
4.64180194288 132.918872152 230.362816228 
2.32134275438 132.979638544 230.362816228 
0.000175800189142 132.499898502 229.496790603 
-2.29481330336 131.479874275 227.764739353 
-4.58910205893 131.419799306 227.764739353 
-6.88199293192 131.319692661 227.764739353 
-8.92864485401 127.688112994 221.702559979 
-11.6786736284 133.490003644 232.094867478 
-14.0588782319 133.763112358 232.960893103 
-16.3302893165 133.00110579 232.094867478 
-18.5098179693 131.705578995 230.362816228 
-20.8055761924 131.362479037 230.362816228 
-22.9213502534 129.99455761 228.630764978 
-24.4233456142 125.648219597 221.702559979 
-27.9639031657 131.560793569 232.960893103 
-30.2556946364 131.052719266 232.960893103 
-32.4173098336 130.019577425 232.094867478 
-34.4227077706 128.468089771 230.362816228 
-36.2460869938 126.405872827 227.764739353 
-37.2771714648 121.928821786 220.836534354 
-41.40804262 127.441541488 232.094867478 
-43.7886788786 127.172221365 232.960893103 
-45.6594507248 125.448942821 231.228841853 
-48.2002468165 125.566550051 232.960893103 
-49.0732255989 121.461072932 226.898713728 
-49.8179852073 117.364361901 220.836534354 
-54.299095292 121.958316428 231.228841853 
-56.4192895998 120.992092537 231.228841853 
-57.4263748896 117.742028076 226.898713728 
-57.8835484296 113.603344651 220.836534354 
-63.1436702391 118.756470112 232.960893103 
-64.2370221725 115.887135116 229.496790603 
-65.4997491267 113.449356864 226.898713728 
-65.9246273743 109.71744804 221.702559979 
-70.7439639622 113.214461348 231.228841853 
-72.4367339087 111.543231441 230.362816228 
-75.2111840676 111.505605581 232.960893103 
-73.4175343959 104.851516642 221.702559979 
-78.7629621028 108.408340506 232.094867478 
-79.7402313639 105.819273315 229.496790603 
-78.4965883843 100.471442244 220.836534354 
-82.1260552514 101.417626464 226.032688103 
-84.8477056924 101.117951642 228.630764978 
-85.9434760284 98.8670452508 226.898713728 
-85.6484668996 95.122631464 221.702559979 
-91.7285162927 98.3671773691 232.960893103 
-91.3473188766 94.593291736 227.764739353 
-90.5094185275 90.5097787905 221.702559979 
-95.6719349226 92.3896843144 230.362816228 
-96.1727569617 89.682909887 227.764739353 
-95.8654334443 86.3179771292 223.434611229 
-100.753472306 87.584019739 231.228841853 
-100.351571385 84.2053194817 226.898713728 
-99.8630114541 80.8678158832 222.568585604 
-103.229160811 80.6518075853 226.898713728 
-105.020322288 79.1388363189 227.764739353 
-103.958443801 75.530567752 222.568585604 
-108.946975365 76.2858404847 230.362816228 
-106.945609674 72.136059475 223.434611229 
-112.381611859 72.9818183284 232.094867478 
-111.942110323 69.9495335358 228.630764978 
-110.574351147 66.4401036546 223.434611229 
-116.48017887 67.2502060605 232.960893103 
-115.012261469 63.7526722515 227.764739353 
-114.341489453 60.7967770267 224.300636853 
-122.067660019 62.1969261501 237.291021227 
-117.741799496 57.4268435477 226.898713728 
-116.913490394 54.5179811542 223.434611229 
-121.501328384 54.0962115164 230.362816228 
-118.744918472 50.4045518017 223.434611229 
-124.242424416 50.1975344586 232.094867478 
-122.298832145 46.9464520976 226.898713728 
-121.220151154 44.1208506192 223.434611229 
-127.644805607 43.9519701472 233.826918728 
-122.686101418 39.863454741 223.434611229 
-127.666493333 39.0318994605 231.228841853 
-125.925098406 36.1087704031 226.898713728 
-124.604254927 33.3879343371 223.434611229 
-127.593712413 31.8130171494 227.764739353 
-125.69357063 29.0189732316 223.434611229 
-129.11531642 27.4446419428 228.630764978 
-126.13893536 24.5192513896 222.568585604 
-131.471676218 23.1823434507 231.228841853 
-129.387021843 20.4932253953 226.898713728 
-127.24930401 17.884052434 222.568585604 
-130.023405547 15.9652033676 226.898713728 
-128.293191637 13.4844905219 223.434611229 
-132.493763447 11.5920467238 230.362816228 
-128.186859006 8.96403260606 222.568585604 
-132.817608217 6.96102341767 230.362816228 
-128.921306114 4.50236992907 223.434611229 
