0.0 0.0 163.0 
0.0 0.0 169.0 
0.0 0.0 166.0 
0.0 0.0 158.0 
0.0 0.0 160.0 
0.0 0.0 156.0 
0.0 0.0 157.0 
0.0 0.0 150.0 
0.0 0.0 162.0 
0.0 0.0 366.0 
0.0 0.0 285.0 
0.0 0.0 464.0 
0.0 0.0 463.0 
0.0 0.0 438.0 
0.0 0.0 445.0 
0.0 0.0 460.0 
0.0 0.0 459.0 
0.0 0.0 466.0 
0.0 0.0 461.0 
0.0 0.0 453.0 
0.0 0.0 318.0 
0.0 0.0 245.0 
0.0 0.0 246.0 
0.0 0.0 247.0 
0.0 0.0 261.0 
0.0 0.0 466.0 
0.0 0.0 486.0 
0.0 0.0 5.0 
0.0 0.0 472.0 
0.0 0.0 471.0 
0.0 0.0 480.0 
0.0 0.0 457.0 
0.0 0.0 459.0 
0.0 0.0 464.0 
0.0 0.0 453.0 
0.0 0.0 106.0 
0.0 0.0 72.0 
0.0 0.0 75.0 
0.0 0.0 74.0 
0.0 0.0 67.0 
0.0 0.0 83.0 
0.0 0.0 83.0 
0.0 0.0 83.0 
0.0 0.0 74.0 
0.0 0.0 84.0 
0.0 0.0 90.0 
0.0 0.0 77.0 
0.0 0.0 86.0 
0.0 0.0 80.0 
0.0 0.0 86.0 
0.0 0.0 82.0 
0.0 0.0 56.0 
0.0 0.0 57.0 
0.0 0.0 81.0 
0.0 0.0 62.0 
0.0 0.0 28.0 
0.0 0.0 73.0 
0.0 0.0 76.0 
0.0 0.0 95.0 
0.0 0.0 101.0 
0.0 0.0 102.0 
0.0 0.0 105.0 
0.0 0.0 111.0 
0.0 0.0 262.0 
0.0 0.0 268.0 
0.0 0.0 142.0 
0.0 0.0 266.0 
0.0 0.0 261.0 
0.0 0.0 725.0 
0.0 0.0 724.0 
0.0 0.0 120.0 
0.0 0.0 125.0 
0.0 0.0 70.0 
0.0 0.0 63.0 
0.0 0.0 61.0 
0.0 0.0 62.0 
0.0 0.0 57.0 
0.0 0.0 68.0 
-0.0 -0.0 139.0 
-0.0 -0.0 153.0 
-0.0 -0.0 152.0 
-0.0 -0.0 141.0 
-0.0 -0.0 154.0 
-0.0 -0.0 624.0 
-0.0 -0.0 183.0 
-0.0 -0.0 98.0 
-0.0 -0.0 130.0 
-0.0 -0.0 107.0 
-0.0 -0.0 608.0 
-0.0 -0.0 139.0 
-0.0 -0.0 158.0 
-0.0 -0.0 121.0 
-0.0 -0.0 131.0 
-0.0 -0.0 118.0 
-0.0 -0.0 1.0 
-0.0 -0.0 1.0 
-0.0 -0.0 598.0 
-0.0 -0.0 1.0 
-0.0 -0.0 126.0 
-0.0 -0.0 119.0 
-0.0 -0.0 118.0 
-0.0 -0.0 606.0 
-0.0 -0.0 594.0 
-0.0 -0.0 594.0 
-0.0 -0.0 596.0 
-0.0 -0.0 599.0 
-0.0 -0.0 600.0 
-0.0 -0.0 603.0 
-0.0 -0.0 603.0 
-0.0 -0.0 606.0 
-0.0 -0.0 608.0 
-0.0 -0.0 604.0 
-0.0 -0.0 254.0 
-0.0 -0.0 253.0 
-0.0 -0.0 238.0 
-0.0 -0.0 243.0 
-0.0 -0.0 228.0 
-0.0 -0.0 237.0 
-0.0 -0.0 234.0 
-0.0 -0.0 230.0 
-0.0 -0.0 243.0 
-0.0 -0.0 657.0 
-0.0 -0.0 664.0 
-0.0 -0.0 657.0 
-0.0 -0.0 665.0 
-0.0 -0.0 677.0 
-0.0 -0.0 683.0 
-0.0 -0.0 685.0 
-0.0 -0.0 695.0 
-0.0 -0.0 702.0 
-0.0 -0.0 711.0 
-0.0 -0.0 398.0 
-0.0 -0.0 395.0 
-0.0 -0.0 399.0 
-0.0 -0.0 636.0 
-0.0 -0.0 628.0 
-0.0 -0.0 617.0 
-0.0 -0.0 565.0 
-0.0 -0.0 553.0 
-0.0 -0.0 537.0 
-0.0 -0.0 535.0 
-0.0 -0.0 561.0 
-0.0 -0.0 555.0 
-0.0 -0.0 516.0 
-0.0 -0.0 496.0 
-0.0 -0.0 492.0 
-0.0 -0.0 472.0 
-0.0 -0.0 467.0 
-0.0 -0.0 460.0 
-0.0 -0.0 486.0 
-0.0 -0.0 493.0 
-0.0 -0.0 472.0 
-0.0 -0.0 470.0 
-0.0 -0.0 468.0 
-0.0 -0.0 428.0 
-0.0 -0.0 422.0 
-0.0 -0.0 414.0 
-0.0 -0.0 414.0 
-0.0 -0.0 409.0 
-0.0 -0.0 406.0 
-0.0 -0.0 431.0 
-0.0 -0.0 429.0 
-0.0 -0.0 435.0 
-0.0 -0.0 428.0 
-0.0 -0.0 432.0 
-0.0 -0.0 429.0 
-0.0 -0.0 397.0 
14.5857554889 14.5857554889 417.745366124 
16.6717831657 16.6717831657 477.708815807 
24.4309988058 24.4309988058 700.572970462 
21.4457036834 21.4457036834 615.624750078 
5.45836631882 5.45836631882 156.904360004 
24.9205483612 24.9205483612 717.562614539 
2.52867126071 2.52867126071 72.9555304475 
16.5195980674 16.5195980674 477.708815807 
15.9250464942 15.9250464942 461.718562558 
5.56782122217 5.56782122217 161.901314144 
5.07022348739 5.07022348739 147.909842551 
5.35948253412 5.35948253412 156.904360004 
5.40679462737 5.40679462737 158.90314166 
4.94396962506 4.94396962506 145.911060895 
4.92170361378 4.92170361378 145.911060895 
4.9650334531 4.9650334531 147.909842551 
5.03955388741 5.03955388741 150.908015035 
4.84593981442 4.84593981442 145.911060895 
4.75172607353 4.75172607353 143.912279239 
14.2657272775 14.2657272775 434.735010201 
15.4110321782 15.4110321782 472.711861667 
15.2407248202 15.2407248202 470.713080011 
15.2594384588 15.2594384588 474.710643323 
15.0165420061 15.0165420061 470.713080011 
14.9924609045 14.9924609045 473.711252495 
14.4917569265 14.4917569265 461.718562558 
14.3661945987 14.3661945987 461.718562558 
14.3286994184 14.3286994184 464.716735042 
13.9493624544 13.9493624544 456.721608418 
13.7820678126 13.7820678126 455.72221759 
13.6710134859 13.6710134859 456.721608418 
13.5255710102 13.5255710102 456.721608418 
13.3760085215 13.3760085215 456.721608418 
13.2802375367 13.2802375367 458.720390074 
6.60382343997 6.60382343997 230.859281279 
6.40917996543 6.40917996543 226.861717967 
6.29906415166 6.29906415166 225.862327139 
6.27026619316 6.27026619316 227.861108795 
0.488195867647 0.488195867647 17.9890349049 
12.404834064 12.404834064 463.717344214 
12.3529797941 12.3529797941 468.714298355 
1.0892856638 1.0892856638 41.974414778 
12.2259335555 12.2259335555 478.708206635 
12.3514590274 12.3514590274 491.7002874 
12.11673416 12.11673416 490.700896572 
11.7822068954 11.7822068954 485.703942431 
11.9483013478 11.9483013478 501.69419568 
1.79812864199 1.79812864199 76.9530937597 
1.76300198025 1.76300198025 76.9530937597 
1.66003939744 1.66003939744 73.9549212756 
1.64722250701 1.64722250701 74.9543121036 
1.63295717123 1.63295717123 75.9537029317 
1.53322231858 1.53322231858 72.9555304475 
1.49747926806 1.49747926806 72.9555304475 
1.66145542388 1.66145542388 82.949438728 
1.48318243075 1.48318243075 75.9537029317 
1.59664148725 1.59664148725 83.948829556 
1.42403224858 1.42403224858 76.9530937597 
1.50986475697 1.50986475697 83.948829556 
1.64027747308 1.64027747308 93.9427378365 
1.87807836464 1.87807836464 110.932381913 
1.5728962165 1.5728962165 95.9415194926 
1.21999226976 1.21999226976 76.9530937597 
0.917936944185 0.917936944185 59.9634496829 
0.737459124392 0.737459124392 49.9695414024 
0.837500467009 0.837500467009 58.9640588548 
0.954543796335 0.954543796335 69.9573579634 
0.875931399084 0.875931399084 66.9591854792 
1.02556445978 1.02556445978 81.9500478999 
1.0384628527 1.0384628527 86.9470020402 
1.09077020914 1.09077020914 95.9415194926 
1.0245335516 1.0245335516 94.9421286646 
0.989754306727 0.989754306727 96.9409103207 
0.942724079673 0.942724079673 97.9403011487 
0.948431825969 0.948431825969 104.936036945 
6.18026370915 6.18026370915 731.554086131 
5.87233149249 5.87233149249 747.54433938 
1.62535441494 1.62535441494 223.863545483 
1.80463566098 1.80463566098 270.834914401 
1.5938508578 1.5938508578 262.839787777 
3.96361199058 3.96361199058 725.557741163 
0.621709933442 0.621709933442 127.92202599 
0.531652192741 0.531652192741 124.923853506 
0.434115648513 0.434115648513 118.927508538 
0.209879546227 0.209879546227 68.9579671353 
0.153373998243 0.153373998243 62.961622167 
0.116898668146 0.116898668146 63.9610129951 
0.0840433171819 0.0840433171819 68.9579671353 
0.0420296574035 0.0420296574035 68.9579671353 
2.77826610154e-06 2.77826610154e-06 59.9634496829 
-0.0883097668534 -0.0883097668534 144.911670067 
-0.197304099016 -0.197304099016 161.901314144 
-0.288578974837 -0.288578974837 157.903750832 
-0.394375315105 -0.394375315105 161.901314144 
-0.188581698448 -0.188581698448 61.962231339 
-0.211580436377 -0.211580436377 57.9646680268 
-0.361515677985 -0.361515677985 84.9482203841 
-0.446845577561 -0.446845577561 91.9439561804 
-0.726104080871 -0.726104080871 132.91898013 
-0.630258534813 -0.630258534813 103.936646117 
-0.779112508982 -0.779112508982 116.928726882 
-0.950530224225 -0.950530224225 130.920198474 
-0.902821336357 -0.902821336357 114.929945226 
-0.970932735391 -0.970932735391 114.929945226 
-1.71619297467 -1.71619297467 189.884257329 
-0.00961954444469 -0.00961954444469 0.999390828048 
-0.0102035640844 -0.0102035640844 0.999390828048 
-6.47068537489 -6.47068537489 599.634496829 
-6.79453706482 -6.79453706482 597.635715173 
-7.19756936571 -7.19756936571 602.632669313 
-7.45405112998 -7.45405112998 595.636933517 
-7.85718378068 -7.85718378068 600.633887657 
-8.15448031102 -8.15448031102 597.635715173 
-8.51690314033 -8.51690314033 599.634496829 
-8.89370642907 -8.89370642907 602.632669313 
-9.22521609756 -9.22521609756 602.632669313 
-9.61729157235 -9.61729157235 606.630232625 
-9.97801057622 -9.97801057622 608.629014281 
-10.2024849772 -10.2024849772 602.632669313 
-10.5570564909 -10.5570564909 604.631450969 
-10.8745731406 -10.8745731406 604.631450969 
-11.2072711423 -11.2072711423 605.630841797 
-11.5375883644 -11.5375883644 606.630232625 
-11.904443729 -11.904443729 609.628405109 
-12.2707025918 -12.2707025918 612.626577593 
-12.6362172606 -12.6362172606 615.624750078 
-5.06171613132 -5.06171613132 240.85318956 
-5.04925831413 -5.04925831413 234.856844591 
-5.2271689599 -5.2271689599 237.855017075 
-14.1775889371 -14.1775889371 631.615003326 
-14.5618939824 -14.5618939824 635.612566639 
-14.9220885193 -14.9220885193 638.610739123 
-15.3756587777 -15.3756587777 645.606474919 
-15.7095660258 -15.7095660258 647.605256575 
-16.1391509423 -16.1391509423 653.601601543 
-16.5940924709 -16.5940924709 660.59733734 
-17.0243789199 -17.0243789199 666.593682308 
-17.4544642896 -17.4544642896 672.590027276 
-18.0158180993 -18.0158180993 683.583326385 
-18.500271678 -18.500271678 691.578453009 
-19.0395979252 -19.0395979252 701.57236129 
-19.6082917851 -19.6082917851 712.565660398 
-20.0956467779 -20.0956467779 720.560787023 
-19.9898267272 -19.9898267272 707.568706258 
-19.4112025289 -19.4112025289 678.586372245 
-19.1825309965 -19.1825309965 662.596118996 
-18.9371172863 -18.9371172863 646.605865747 
-18.852898134 -18.852898134 636.611957467 
-18.5171637967 -18.5171637967 618.622922562 
-18.2249433306 -18.2249433306 602.632669313 
-17.9784735239 -17.9784735239 588.64119772 
-17.7490735914 -17.7490735914 575.649116956 
-17.631214987 -17.631214987 566.654599503 
-17.4716410412 -17.4716410412 556.660691223 
-17.3962938694 -17.3962938694 549.664955426 
-17.2163972462 -17.2163972462 539.671047146 
-17.0584267259 -17.0584267259 530.676529694 
-16.8586180854 -16.8586180854 520.682621413 
-16.6816922576 -16.6816922576 511.688103961 
-16.5941403002 -16.5941403002 505.691758992 
-16.5980279939 -16.5980279939 502.693586508 
-16.4629046272 -16.4629046272 495.697850712 
-16.5203784798 -16.5203784798 494.698459884 
-16.538916418 -16.538916418 492.699678228 
-16.2820627069 -16.2820627069 482.705769947 
-16.2879987417 -16.2879987417 480.706988291 
-16.1183590145 -16.1183590145 473.711252495 
-15.6687967874 -15.6687967874 458.720390074 
-15.86156935 -15.86156935 462.717953386 
-15.7411168307 -15.7411168307 457.720999246 
-15.7526908854 -15.7526908854 456.721608418 
-15.4482376197 -15.4482376197 446.727700137 
-15.4837765103 -15.4837765103 446.727700137 
-15.0980996012 -15.0980996012 434.735010201 
-15.019195556 -15.019195556 431.736837717 
-14.865769113 -14.865769113 426.739883577 
-14.7422411664 -14.7422411664 422.742320264 
-14.6837239797 -14.6837239797 420.743538608 
-14.5508606629 -14.5508606629 416.745975296 
29.711706837 29.711706837 424.962287163 
34.4386771062 34.4386771062 492.79664286 
49.1108755185 49.1108755185 703.282658333 
42.2390006957 42.2390006957 605.521381005 
6.39316934566 6.39316934566 91.7758930023 
52.1000862509 52.1000862509 749.170604834 
5.88509927489 5.88509927489 84.7929446217 
30.6013552832 30.6013552832 441.920876087 
4.61613914273 4.61613914273 66.836791643 
5.70182278169 5.70182278169 82.797816513 
4.65628607788 4.65628607788 67.8343556974 
5.66326201373 5.66326201373 82.797816513 
5.4374852425 5.4374852425 79.8051243499 
4.73790483315 4.73790483315 69.8294838061 
4.64918734313 4.64918734313 68.8319197518 
4.69379219701 4.69379219701 69.8294838061 
4.5361709591 4.5361709591 67.8343556974 
4.44493401171 4.44493401171 66.836791643 
4.68287546285 4.68287546285 70.8270478605 
4.39182289089 4.39182289089 66.836791643 
4.42837973046 4.42837973046 67.8343556974 
30.3335271359 30.3335271359 467.857541501 
29.9223855241 29.9223855241 464.864849338 
29.6324347036 29.6324347036 463.867285284 
29.2080063207 29.2080063207 460.87459312 
28.9031612472 28.9031612472 459.877029066 
28.6527327985 28.6527327985 459.877029066 
28.3319851924 28.3319851924 458.879465012 
28.0647608371 28.0647608371 458.879465012 
27.7285768554 27.7285768554 457.881900957 
27.5047497789 27.5047497789 458.879465012 
27.5670745342 27.5670745342 464.864849338 
27.2622445 27.2622445 464.864849338 
26.949110136 26.949110136 464.864849338 
26.7991902175 26.7991902175 467.857541501 
26.5240490414 26.5240490414 468.855105555 
13.2032635789 13.2032635789 236.422680886 
12.5328930457 12.5328930457 227.444604397 
12.143250869 12.143250869 223.45434818 
6.0917656126 6.0917656126 113.722302199 
11.7926731513 11.7926731513 223.45434818 
23.3276164612 23.3276164612 448.903824468 
24.4369717194 24.4369717194 477.833182045 
24.2362623568 24.2362623568 481.823438262 
23.8734291035 23.8734291035 482.821002317 
23.5985159223 23.5985159223 485.81369448 
23.3111600043 23.3111600043 488.806386643 
23.0113611252 23.0113611252 491.799078806 
3.47809165391 3.47809165391 75.8148681324 
3.318056296 3.318056296 73.8197400236 
3.24853895545 3.24853895545 73.8197400236 
3.09213932121 3.09213932121 71.8246119149 
3.23249865305 3.23249865305 76.8124321867 
3.40315246006 3.40315246006 82.797816513 
2.88076911934 2.88076911934 71.8246119149 
3.39363857453 3.39363857453 86.7880727305 
2.77342444374 2.77342444374 72.8221759692 
3.32687867861 3.32687867861 89.7807648936 
3.23345354937 3.23345354937 89.7807648936 
2.75538261068 2.75538261068 78.8075602955 
2.90840268667 2.90840268667 85.7905086761 
2.84913771969 2.84913771969 86.7880727305 
2.62851101375 2.62851101375 82.797816513 
2.38518218314 2.38518218314 77.8099962411 
2.21102965493 2.21102965493 74.817304078 
1.64560801839 1.64560801839 57.8587151536 
2.23499742378 2.23499742378 81.8002524586 
1.75079561249 1.75079561249 66.836791643 
0.849950007289 0.849950007289 33.9171778487 
1.88479516713 1.88479516713 78.8075602955 
1.8849745131 1.8849745131 82.797816513 
2.11248683329 2.11248683329 97.7612773286 
2.05988224727 2.05988224727 100.753969492 
1.96120978485 1.96120978485 101.751533546 
1.8957081358 1.8957081358 104.744225709 
12.5555058912 12.5555058912 742.187656454 
11.9728863093 11.9728863093 761.141373487 
3.78534893656 3.78534893656 260.364218191 
3.38079872471 3.38079872471 253.381269811 
9.04852704665 9.04852704665 745.180348617 
8.04243122561 8.04243122561 735.204708073 
7.10647565934 7.10647565934 730.216887801 
6.06139353317 6.06139353317 711.263170768 
0.00729161676363 0.00729161676363 0.997564054373 
0.449902183147 0.449902183147 73.8197400236 
0.350355581954 0.350355581954 71.8246119149 
0.248258345607 0.248258345607 67.8343556974 
0.160680578061 0.160680578061 65.8392275886 
0.0791380729705 0.0791380729705 64.8416635343 
5.83080468549e-06 5.83080468549e-06 62.8465354255 
-0.0815606904602 -0.0815606904602 66.836791643 
-0.136324676371 -0.136324676371 55.8635870449 
-0.193485678137 -0.193485678137 52.8708948818 
-0.326012961389 -0.326012961389 66.836791643 
-0.00607957483118 -0.00607957483118 0.997564054373 
-0.641646075201 -0.641646075201 87.7856367848 
-0.595074863392 -0.595074863392 69.8294838061 
-0.00970811677758 -0.00970811677758 0.997564054373 
-0.0109122068967 -0.0109122068967 0.997564054373 
-0.981150817659 -0.981150817659 80.8026884042 
-0.0133100494956 -0.0133100494956 0.997564054373 
-1.59533787276 -1.59533787276 109.732045981 
-1.50640088418 -1.50640088418 95.7661492198 
-2.59882705464 -2.59882705464 153.624864373 
-0.0180541844005 -0.0180541844005 0.997564054373 
-0.019227368976 -0.019227368976 0.997564054373 
-0.0203946967186 -0.0203946967186 0.997564054373 
-5.56139950877 -5.56139950877 257.371526028 
-0.0227103612823 -0.0227103612823 0.997564054373 
-14.6010915512 -14.6010915512 610.509201276 
-15.0990075167 -15.0990075167 602.528688841 
-15.652532597 -15.652532597 597.54086857 
-16.5443287225 -16.5443287225 605.521381005 
-16.9950573807 -16.9950573807 597.54086857 
-17.7176168099 -17.7176168099 599.535996678 
-18.3474554322 -18.3474554322 598.538432624 
-19.0645227638 -19.0645227638 600.533560733 
-19.7801217742 -19.7801217742 602.528688841 
-20.460176767 -20.460176767 603.526252896 
-21.1710070576 -21.1710070576 605.521381005 
-21.8077515172 -21.8077515172 605.521381005 
-22.5857137824 -22.5857137824 609.511637222 
-23.2510797804 -23.2510797804 610.509201276 
-24.1844556164 -24.1844556164 618.489713711 
-0.0400105305839 -0.0400105305839 0.997564054373 
-10.2914234659 -10.2914234659 250.388577648 
-10.5790492474 -10.5790492474 251.386141702 
-11.2089669687 -11.2089669687 260.364218191 
-11.3259500548 -11.3259500548 257.371526028 
-28.5172585222 -28.5172585222 634.450738581 
-29.7925099325 -29.7925099325 649.414199397 
-29.9660249571 -29.9660249571 640.436122908 
-31.0656003391 -31.0656003391 651.409327506 
-31.3999923976 -31.3999923976 646.421507234 
-32.6039147993 -32.6039147993 659.389839941 
-33.2683245673 -33.2683245673 661.384968049 
-34.2320823561 -34.2320823561 669.365480484 
-35.198697182 -35.198697182 677.345992919 
-35.851749514 -35.851749514 679.341121028 
-36.7108215555 -36.7108215555 685.326505354 
-37.8391557727 -37.8391557727 696.299709953 
-38.9178503516 -38.9178503516 706.275350496 
-39.8325509779 -39.8325509779 713.258298877 
-39.6166947424 -39.6166947424 700.28996617 
-39.0844606594 -39.0844606594 682.333813191 
-38.515182888 -38.515182888 664.377660213 
-38.0851729303 -38.0851729303 649.414199397 
-37.801140383 -37.801140383 637.443430745 
-37.7890742263 -37.7890742263 630.460482364 
-37.8171296688 -37.8171296688 624.475098038 
-36.7891867228 -36.7891867228 601.531124787 
-35.8460698188 -35.8460698188 580.582279645 
-35.800329235 -35.800329235 574.596895319 
-35.1727819391 -35.1727819391 559.633434503 
-34.8346137849 -34.8346137849 549.65779396 
-35.558879633 -35.558879633 556.64074234 
-34.2887035877 -34.2887035877 532.699205035 
-33.9554044194 -33.9554044194 523.721128546 
-33.6686763021 -33.6686763021 515.740616111 
-33.2336127628 -33.2336127628 505.764975567 
-33.0439220172 -33.0439220172 499.779591241 
-32.7730672919 -32.7730672919 492.79664286 
-32.2201293491 -32.2201293491 481.823438262 
-32.2530332693 -32.2530332693 479.828310154 
-31.8031139951 -31.8031139951 470.850233664 
-31.7439413798 -31.7439413798 467.857541501 
-31.8092691812 -31.8092691812 466.859977447 
-31.5231996936 -31.5231996936 460.87459312 
-32.0461876533 -32.0461876533 466.859977447 
-31.1882690562 -31.1882690562 452.894080685 
-31.2794968654 -31.2794968654 452.894080685 
-31.56842923 -31.56842923 455.886772849 
-31.3641070929 -31.3641070929 451.896516631 
-31.3571670005 -31.3571670005 450.898952577 
-29.8811106566 -29.8811106566 428.952543381 
-30.1309454818 -30.1309454818 431.945235544 
-29.6058428264 -29.6058428264 423.964723109 
-29.2798442191 -29.2798442191 418.976902837 
-29.0839933735 -29.0839933735 415.984210674 
44.5223058932 44.5223058932 423.666331366 
51.8144909742 51.8144909742 493.282864689 
74.4265927244 74.4265927244 709.09411799 
64.0240824144 64.0240824144 610.636449433 
8.22631850163 8.22631850163 78.5672304645 
77.7589076488 77.7589076488 743.902384651 
8.61118675028 8.61118675028 82.545318083 
49.1677791747 49.1677791747 472.397904692 
7.12366072026 7.12366072026 68.6220114184 
7.61758642394 7.61758642394 73.5946209414 
7.38776864662 7.38776864662 71.6055771322 
7.66831375141 7.66831375141 74.5891428461 
7.63869932389 7.63869932389 74.5891428461 
8.01245184268 8.01245184268 78.5672304645 
7.8753997346 7.8753997346 77.5727085599 
6.53114345714 6.53114345714 64.6439237999 
6.99726930636 6.99726930636 69.616533323 
6.85945567158 6.85945567158 68.6220114184 
6.52301298362 6.52301298362 65.6384457045 
6.48282052917 6.48282052917 65.6384457045 
6.34306769134 6.34306769134 64.6439237999 
45.551006272 45.551006272 467.425295169 
45.0304408171 45.0304408171 465.436251359 
44.5945013087 44.5945013087 464.441729455 
44.2411967968 44.2411967968 464.441729455 
43.5925675136 43.5925675136 461.458163741 
43.1217287416 43.1217287416 460.463641836 
42.7317041945 42.7317041945 460.463641836 
42.3286631783 42.3286631783 460.463641836 
41.912728463 41.912728463 460.463641836 
41.663223406 41.663223406 462.452685646 
41.4859141934 41.4859141934 465.436251359 
41.2025028001 41.2025028001 467.425295169 
41.0758824342 41.0758824342 471.403382787 
41.2710876855 41.2710876855 479.359558024 
40.2530659586 40.2530659586 473.392426596 
40.2374113979 40.2374113979 479.359558024 
39.2902609656 39.2902609656 474.386948501 
38.9110105778 38.9110105778 476.37599231 
0.400367103335 0.400367103335 4.97260952307 
38.0243089081 38.0243089081 479.359558024 
37.2862869724 37.2862869724 477.370514215 
37.0769208041 37.0769208041 482.343123738 
36.5430533106 36.5430533106 483.337645642 
35.9216072085 35.9216072085 483.337645642 
35.5070537409 35.5070537409 486.321211356 
35.1450991169 35.1450991169 490.299298975 
0.0699431901137 0.0699431901137 0.994521904614 
4.8003788971 4.8003788971 69.616533323 
4.9720306609 4.9720306609 73.5946209414 
5.13098812939 5.13098812939 77.5727085599 
4.63349929636 4.63349929636 71.6055771322 
4.718010887 4.718010887 74.5891428461 
4.97666468616 4.97666468616 80.5562742737 
4.25681085237 4.25681085237 70.6110552276 
4.55922458317 4.55922458317 77.5727085599 
4.95293671942 4.95293671942 86.5234057014 
5.04064247283 5.04064247283 90.5014933199 
4.95292774295 4.95292774295 91.4960152245 
4.86057689805 4.86057689805 92.4905371291 
4.25682130839 4.25682130839 83.5398399876 
4.56380611799 4.56380611799 92.4905371291 
3.70148811546 3.70148811546 77.5727085599 
3.89489655341 3.89489655341 84.5343618922 
3.35735251983 3.35735251983 75.5836647507 
2.50842118983 2.50842118983 58.6767923722 
0.0408425850776 0.0408425850776 0.994521904614 
2.31026982879 2.31026982879 58.6767923722 
1.38600959524 1.38600959524 36.7973104707 
2.43106196598 2.43106196598 67.6274895138 
2.75652830832 2.75652830832 80.5562742737 
2.90710348936 2.90710348936 89.5069714153 
3.05612468539 3.05612468539 99.4521904614 
2.99645159736 2.99645159736 103.43027808 
2.8677288671 2.8677288671 105.419321889 
2.68050853115 2.68050853115 105.419321889 
17.8235239555 17.8235239555 753.847603698 
16.6690490221 16.6690490221 762.798300839 
15.2180912938 15.2180912938 758.820213221 
13.7223701675 13.7223701675 751.858559888 
12.280324779 12.280324779 746.885950365 
10.6925324953 10.6925324953 730.973599891 
0.891725198872 0.891725198872 69.616533323 
0.524463320191 0.524463320191 47.7370514215 
0.437298176247 0.437298176247 47.7370514215 
0.45208311022 0.45208311022 61.6603580861 
0.322772855055 0.322772855055 58.6767923722 
0.160517421338 0.160517421338 43.758963803 
0.105815711316 0.105815711316 57.6822704676 
7.21176117506e-06 7.21176117506e-06 51.7151390399 
-0.102151363027 -0.102151363027 55.6932266584 
-0.204279376323 -0.204279376323 55.6932266584 
-0.311815613609 -0.311815613609 56.687748563 
-0.510397045781 -0.510397045781 69.616533323 
-0.801689006965 -0.801689006965 87.517927606 
-0.830379291918 -0.830379291918 75.5836647507 
-0.0127386561045 -0.0127386561045 0.994521904614 
-0.0145473885829 -0.0145473885829 0.994521904614 
-0.0163516897932 -0.0163516897932 0.994521904614 
-1.77879899262 -1.77879899262 97.4631466522 
-1.93464574552 -1.93464574552 96.4686247476 
-2.71656468778 -2.71656468778 124.315238077 
-3.69163733206 -3.69163733206 156.139939024 
-0.0252875471954 -0.0252875471954 0.994521904614 
-0.027053777992 -0.027053777992 0.994521904614 
-0.0288117679596 -0.0288117679596 0.994521904614 
-18.7950036831 -18.7950036831 611.630971338 
-19.8327440543 -19.8327440543 610.636449433 
-20.9970970257 -20.9970970257 613.620015147 
-21.7006449243 -21.7006449243 603.674796101 
-22.7004326618 -22.7004326618 602.680274196 
-23.7290562899 -23.7290562899 602.680274196 
-24.7096095 -24.7096095 601.685752292 
-25.764308155 -25.764308155 602.680274196 
-26.858667315 -26.858667315 604.669318005 
-27.8598143585 -27.8598143585 604.669318005 
-28.8524750471 -28.8524750471 604.669318005 
-29.9344928854 -29.9344928854 606.658361815 
-30.9631591467 -30.9631591467 607.652883719 
-32.0378488616 -32.0378488616 609.641927528 
-33.1090990175 -33.1090990175 611.630971338 
-34.2319101041 -34.2319101041 614.614537052 
-35.6951567071 -35.6951567071 623.565234193 
-36.5905559081 -36.5905559081 622.570712288 
-37.9514233511 -37.9514233511 629.532365621 
-38.953010952 -38.953010952 630.526887525 
-40.3860309756 -40.3860309756 638.483062762 
-15.9597767031 -15.9597767031 246.641432344 
-42.6265309297 -42.6265309297 644.45019419 
-43.3371572232 -43.3371572232 641.466628476 
-44.9176939922 -44.9176939922 651.411847522 
-45.7427115252 -45.7427115252 650.417325618 
-46.4797959794 -46.4797959794 648.428281808 
-47.6330536787 -47.6330536787 652.406369427 
-49.1518629734 -49.1518629734 661.357066568 
-50.3029629991 -50.3029629991 665.335154187 
-51.9840077497 -51.9840077497 676.274895138 
-53.132831985 -53.132831985 680.252982756 
-54.8274558743 -54.8274558743 691.192723707 
-55.971196419 -55.971196419 695.170811325 
-57.5946706008 -57.5946706008 705.116030371 
-59.3059313337 -59.3059313337 716.055771322 
-60.6899161661 -60.6899161661 723.017424654 
-60.3794825292 -60.3794825292 710.088639894 
-58.3102873273 -58.3102873273 677.269417042 
-57.9740847326 -57.9740847326 665.335154187 
-57.9463987618 -57.9463987618 657.37897895 
-57.2646498519 -57.2646498519 642.461150381 
-56.7156524003 -56.7156524003 629.532365621 
-56.0344258555 -56.0344258555 615.609058956 
-55.3105908306 -55.3105908306 601.685752292 
-55.6526593375 -55.6526593375 599.696708482 
-54.018507244 -54.018507244 576.822704676 
-53.4571957168 -53.4571957168 565.882963725 
-52.9567417723 -52.9567417723 555.937744679 
-52.4247372454 -52.4247372454 545.992525633 
-51.7657048534 -51.7657048534 535.052784682 
-51.3659732786 -51.3659732786 527.096609445 
-50.9396609561 -50.9396609561 519.140434209 
-50.4873717225 -50.4873717225 511.184258972 
-50.3062208327 -50.3062208327 506.211649449 
-49.5073330311 -49.5073330311 495.271908498 
-49.080806316 -49.080806316 488.310255166 
-49.0337781834 -49.0337781834 485.326689452 
-48.6658970903 -48.6658970903 479.359558024 
-48.3789493708 -48.3789493708 474.386948501 
-48.0728516274 -48.0728516274 469.414338978 
-47.6457625679 -47.6457625679 463.44720755 
-47.0970008291 -47.0970008291 456.485554218 
-47.2496017916 -47.2496017916 456.485554218 
-47.0780858431 -47.0780858431 453.501988504 
-47.097539329 -47.097539329 452.507466599 
-46.9983894805 -46.9983894805 450.51842279 
-45.6365654238 -45.6365654238 436.595116126 
-46.3381124474 -46.3381124474 442.562247553 
-46.2975363471 -46.2975363471 441.567725649 
-46.2426030737 -46.2426030737 440.573203744 
-45.5466047808 -45.5466047808 433.611550412 
-44.7313287314 -44.7313287314 425.655375175 
60.5310275567 60.5310275567 430.766617043 
69.6831901499 69.6831901499 496.124310663 
100.762133247 100.762133247 717.944361738 
86.493561035 86.493561035 616.937017052 
0.138643389842 0.138643389842 0.990268085155 
6.22847615796 6.22847615796 44.562063832 
12.1559338209 12.1559338209 87.1435914937 
66.4285481082 66.4285481082 477.309217045 
9.4847080309 9.4847080309 68.3284978757 
11.1017496281 11.1017496281 80.2117148976 
10.109583169 10.109583169 73.2798383015 
11.2989332308 11.2989332308 82.1922510679 
10.8484796482 10.8484796482 79.2214468124 
10.5330387788 10.5330387788 77.2409106421 
9.9478782896 9.9478782896 73.2798383015 
10.0336250881 10.0336250881 74.2701063866 
9.84879296775 9.84879296775 73.2798383015 
9.26529694299 9.26529694299 69.3187659609 
9.34293646568 9.34293646568 70.309034046 
9.02380897879 9.02380897879 68.3284978757 
9.22497244452 9.22497244452 70.309034046 
62.3258180778 62.3258180778 478.29948513 
60.9800866983 60.9800866983 471.367608534 
5.46705730438 5.46705730438 42.5815276617 
7.31574769661 7.31574769661 57.435548939 
7.88053599666 7.88053599666 62.3868893648 
7.5642477842 7.5642477842 60.4063531945 
58.3691772089 58.3691772089 470.377340449 
57.4534747734 57.4534747734 467.406536193 
56.7683915469 56.7683915469 466.416268108 
56.9035069946 56.9035069946 472.357876619 
55.8260232125 55.8260232125 468.396804278 
55.9090345026 55.9090345026 474.338412789 
55.2668628737 55.2668628737 474.338412789 
54.7218603271 54.7218603271 475.328680875 
54.495182739 54.495182739 479.289753215 
53.1289987183 53.1289987183 473.348144704 
52.6415309462 52.6415309462 475.328680875 
52.0238887881 52.0238887881 476.31894896 
1.59919115863 1.59919115863 14.8540212773 
51.2571969489 51.2571969489 483.250825556 
50.5751871988 50.5751871988 484.241093641 
49.8745212803 49.8745212803 485.231361726 
49.3555755726 49.3555755726 488.202165982 
48.5162414919 48.5162414919 488.202165982 
48.0488399042 48.0488399042 492.163238322 
47.3629929295 47.3629929295 494.143774492 
46.6556132131 46.6556132131 496.124310663 
8.03490764828 8.03490764828 87.1435914937 
7.06724112462 7.06724112462 78.2311787273 
6.74400481679 6.74400481679 76.250642557 
6.68331524889 6.68331524889 77.2409106421 
6.36549244465 6.36549244465 75.2603744718 
6.46250946242 6.46250946242 78.2311787273 
5.82732988153 5.82732988153 72.2895702163 
6.22597122847 6.22597122847 79.2214468124 
6.82192240913 6.82192240913 89.124127664 
6.56379861979 6.56379861979 88.1338595788 
5.44764121017 5.44764121017 75.2603744718 
5.98444748779 5.98444748779 85.1630553234 
5.53274590747 5.53274590747 81.2019829827 
5.29236752608 5.29236752608 80.2117148976 
4.92829956866 4.92829956866 77.2409106421 
4.88076309544 4.88076309544 79.2214468124 
4.47010457934 4.47010457934 75.2603744718 
4.07569507878 4.07569507878 71.2993021312 
3.86093340249 3.86093340249 70.309034046 
3.70160252656 3.70160252656 70.309034046 
2.39401291845 2.39401291845 47.5328680875 
3.90320811402 3.90320811402 81.2019829827 
3.85138649405 3.85138649405 84.1727872382 
4.51573056476 4.51573056476 103.978148941 
4.35387128742 4.35387128742 105.958685112 
4.18139470403 4.18139470403 107.939221282 
4.07034672774 4.07034672774 111.900293623 
3.97295892651 3.97295892651 116.851634048 
0.031307263458 0.031307263458 0.990268085155 
0.0289358469914 0.0289358469914 0.990268085155 
0.0265556164003 0.0265556164003 0.990268085155 
0.918357275548 0.918357275548 37.6301872359 
0.762006541425 0.762006541425 34.6593829804 
0.0193693023799 0.0193693023799 0.990268085155 
1.39080931631 1.39080931631 81.2019829827 
0.756480897293 0.756480897293 51.4939404281 
0.630754723955 0.630754723955 51.4939404281 
0.601920343278 0.601920343278 61.3966212796 
0.393332191055 0.393332191055 53.4744765984 
0.21371889188 0.21371889188 43.5717957468 
0.119025216906 0.119025216906 48.5231361726 
9.7866622731e-06 9.7866622731e-06 52.4842085132 
-0.165152742913 -0.165152742913 67.3382297906 
-0.330267735259 -0.330267735259 67.3382297906 
-0.495282125023 -0.495282125023 67.3382297906 
-0.708685768434 -0.708685768434 72.2895702163 
-0.897585266984 -0.897585266984 73.2798383015 
-1.12014535544 -1.12014535544 76.250642557 
-0.016960722668 -0.016960722668 0.990268085155 
-0.0193689366659 -0.0193689366659 0.990268085155 
-0.0217712507081 -0.0217712507081 0.990268085155 
-2.39252636973 -2.39252636973 98.0365404304 
-2.33686234122 -2.33686234122 87.1435914937 
-3.47225829043 -3.47225829043 118.832170219 
-0.0313069036153 -0.0313069036153 0.990268085155 
-0.033668785107 -0.033668785107 0.990268085155 
-22.2606138608 -22.2606138608 611.985676626 
-23.7071377382 -23.7071377382 611.985676626 
-25.1057501714 -25.1057501714 610.995408541 
-26.5350762271 -26.5350762271 610.995408541 
-27.8203892146 -27.8203892146 608.024604285 
-29.2262476761 -29.2262476761 608.024604285 
-30.6232035544 -30.6232035544 608.024604285 
-32.2193709417 -32.2193709417 611.985676626 
-33.4974663082 -33.4974663082 610.005140456 
-35.2092670804 -35.2092670804 615.946748967 
-36.5252519336 -36.5252519336 614.956480881 
-37.5816713649 -37.5816713649 610.005140456 
-39.2366422221 -39.2366422221 614.956480881 
-40.3786025706 -40.3786025706 611.985676626 
-41.9002287869 -41.9002287869 614.956480881 
-43.2130791752 -43.2130791752 614.956480881 
-44.5844456363 -44.5844456363 615.946748967 
-46.0201454536 -46.0201454536 617.927285137 
-47.5258652509 -47.5258652509 620.898089392 
-48.9515062027 -48.9515062027 622.878625563 
-50.5299429573 -50.5299429573 626.839697903 
-51.7816904911 -51.7816904911 626.839697903 
-53.5202019544 -53.5202019544 632.781306414 
-54.9229554382 -54.9229554382 634.761842585 
-56.316634899 -56.316634899 636.742378755 
-57.8796271827 -57.8796271827 640.703451095 
-59.5311794865 -59.5311794865 645.654791521 
-61.8348021438 -61.8348021438 657.538008543 
-63.023923473 -63.023923473 657.538008543 
-64.7739120208 -64.7739120208 663.479617054 
-66.6235463115 -66.6235463115 670.41149365 
-68.3768189314 -68.3768189314 676.353102161 
-70.1295104676 -70.1295104676 682.294710672 
-72.0875690234 -72.0875690234 690.216855353 
-74.1547081371 -74.1547081371 699.12926812 
-76.4411671762 -76.4411671762 710.022217056 
-78.1979018067 -78.1979018067 715.963825567 
-79.8394897438 -79.8394897438 720.915165993 
-81.916304933 -81.916304933 729.827578759 
-81.6300233771 -81.6300233771 717.944361738 
-80.14457569 -80.14457569 696.158463864 
-78.8041749061 -78.8041749061 676.353102161 
-77.3854404966 -77.3854404966 656.547740458 
-76.1262690609 -76.1262690609 638.722914925 
-75.1554554449 -75.1554554449 623.868893648 
-74.244746535 -74.244746535 610.005140456 
-74.0077569508 -74.0077569508 602.082995774 
-72.6234422282 -72.6234422282 585.248438327 
-72.9142898915 -72.9142898915 582.277634071 
-72.3006969976 -72.3006969976 572.37495322 
-72.0221856176 -72.0221856176 565.443076624 
-71.580223858 -71.580223858 557.520931942 
-70.8444326896 -70.8444326896 547.618251091 
-69.8100029606 -69.8100029606 535.735034069 
-68.7324711588 -68.7324711588 523.851817047 
-68.1362309738 -68.1362309738 515.929672366 
-67.6375345844 -67.6375345844 508.99779577 
-66.9748030132 -66.9748030132 501.075651089 
-66.2796610652 -66.2796610652 493.153506407 
-65.8205304944 -65.8205304944 487.211897896 
-65.3333163669 -65.3333163669 481.270289385 
-64.5485795534 -64.5485795534 473.348144704 
-64.5484143623 -64.5484143623 471.367608534 
-63.8457433286 -63.8457433286 464.435731938 
-63.5264020104 -63.5264020104 460.474659597 
-63.1840022699 -63.1840022699 456.513587257 
-62.6815223815 -62.6815223815 451.562246831 
-62.5696049663 -62.5696049663 449.58171066 
-62.0228694004 -62.0228694004 444.630370235 
-61.5926914946 -61.5926914946 440.669297894 
-61.8349375139 -61.8349375139 441.659565979 
-61.6422696203 -61.6422696203 439.679029809 
-61.4301471744 -61.4301471744 437.698493639 
-61.1988040413 -61.1988040413 435.717957468 
-61.365935439 -61.365935439 436.708225553 
77.7824701217 77.7824701217 441.193884818 
88.6800902477 88.6800902477 503.236774871 
128.323440177 128.323440177 728.757756173 
109.997897428 109.997897428 625.352939418 
17.1257377907 17.1257377907 97.4959700826 
7.25326442398 7.25326442398 41.3619267017 
13.4435877082 13.4435877082 76.8150067317 
84.0875131591 84.0875131591 481.571003741 
12.3487301273 12.3487301273 70.90616006 
12.996754918 12.996754918 74.8453911745 
13.8070683874 13.8070683874 79.7694300675 
13.5882730187 13.5882730187 78.7846222889 
14.7201783369 14.7201783369 85.6782767392 
13.8161761023 13.8161761023 80.7542378462 
13.0830280776 13.0830280776 76.8150067317 
13.1867758659 13.1867758659 77.7998145103 
11.4581711916 11.4581711916 67.9517367242 
11.7255866024 11.7255866024 69.9213522814 
12.806621581 12.806621581 76.8150067317 
13.2172391723 13.2172391723 79.7694300675 
12.482810609 12.482810609 75.8301989531 
78.0867814994 78.0867814994 477.631772627 
77.3644377751 77.3644377751 476.646964848 
76.462261014 76.462261014 474.677349291 
75.8564809062 75.8564809062 474.677349291 
75.0715203716 75.0715203716 473.692541512 
74.2663493931 74.2663493931 472.707733734 
73.2879857585 73.2879857585 470.738118176 
72.9004931082 72.9004931082 472.707733734 
72.7856845906 72.7856845906 476.646964848 
72.1900462327 72.1900462327 477.631772627 
71.5692964055 71.5692964055 478.616580405 
69.9040992177 69.9040992177 472.707733734 
69.6770233287 69.6770233287 476.646964848 
68.8461890191 68.8461890191 476.646964848 
67.9943835288 67.9943835288 476.646964848 
67.6765924936 67.6765924936 480.586195963 
67.0499226472 67.0499226472 482.55581152 
65.7206159055 65.7206159055 479.601388184 
65.3138884964 65.3138884964 483.540619298 
64.3474661578 64.3474661578 483.540619298 
63.4904886996 63.4904886996 484.525427077 
62.7371139663 62.7371139663 486.495042634 
62.081273573 62.081273573 489.44946597 
61.3938913834 61.3938913834 492.403889306 
60.6749504255 60.6749504255 495.358312642 
59.924447257 59.924447257 498.312735978 
59.142392034 59.142392034 501.267159313 
9.11387633976 9.11387633976 78.7846222889 
9.26436884769 9.26436884769 81.7390456248 
9.07026898116 9.07026898116 81.7390456248 
8.76649771872 8.76649771872 80.7542378462 
8.15132003766 8.15132003766 76.8150067317 
8.16542915364 8.16542915364 78.7846222889 
7.47004012397 7.47004012397 73.8605833959 
8.0595379042 8.0595379042 81.7390456248 
8.70095696835 8.70095696835 90.6023156323 
7.72964333615 7.72964333615 82.7238534034 
8.49637039355 8.49637039355 93.5567389681 
7.64052513499 7.64052513499 86.6630845178 
7.5767735937 7.5767735937 88.6327000751 
7.41858875248 7.41858875248 89.6175078537 
6.77978426409 6.77978426409 84.6934689606 
6.47040692345 6.47040692345 83.708661182 
6.4580542796 6.4580542796 86.6630845178 
6.99228804375 6.99228804375 97.4959700826 
5.36013811639 5.36013811639 77.7998145103 
5.33408846288 5.33408846288 80.7542378462 
4.79171417713 4.79171417713 75.8301989531 
4.9294773479 4.9294773479 81.7390456248 
4.74889307047 4.74889307047 82.7238534034 
5.63433867914 5.63433867914 103.404816754 
5.58469449889 5.58469449889 108.328855647 
5.45650359407 5.45650359407 112.268086762 
4.8089655644 4.8089655644 105.374432311 
4.57903004594 4.57903004594 107.344047869 
0.0390625000561 0.0390625000561 0.984807778612 
0.0361036513536 0.0361036513536 0.984807778612 
1.15968318017 1.15968318017 34.4682722514 
1.20615464324 1.20615464324 39.3923111445 
1.46689606098 1.46689606098 53.179620045 
0.845857006028 0.845857006028 34.4682722514 
0.994641381939 0.994641381939 46.2859655947 
0.99832567135 0.99832567135 54.1644278236 
0.726462720742 0.726462720742 47.2707733734 
0.666231172089 0.666231172089 54.1644278236 
0.518030719683 0.518030719683 56.1340433809 
0.339385428216 0.339385428216 55.1492356023 
0.172755818916 0.172755818916 56.1340433809 
1.22109521359e-05 1.22109521359e-05 52.1948122664 
-0.203032989051 -0.203032989051 65.982121167 
-0.35147962679 -0.35147962679 57.1188511595 
-0.590706875259 -0.590706875259 64.0125056098 
-0.690431559079 -0.690431559079 56.1340433809 
-1.05939266848 -1.05939266848 68.9365445028 
-1.47022432368 -1.47022432368 79.7694300675 
-0.0211621252385 -0.0211621252385 0.984807778612 
-16.7476524991 -16.7476524991 682.471790578 
-18.9606721532 -18.9606721532 687.395829471 
-3.40733558886 -3.40733558886 111.283278983 
-3.21393522385 -3.21393522385 95.5263545253 
-0.0361032006324 -0.0361032006324 0.984807778612 
-0.0390620510755 -0.0390620510755 0.984807778612 
-27.0117888387 -27.0117888387 633.231401647 
-28.5389055307 -28.5389055307 625.352939418 
-30.2976737858 -30.2976737858 623.383323861 
-32.2386384269 -32.2386384269 625.352939418 
-33.3228166137 -33.3228166137 611.565630518 
-35.4468215294 -35.4468215294 617.47447719 
-36.9411151356 -36.9411151356 612.550438296 
-38.6445965433 -38.6445965433 611.565630518 
-40.3956973128 -40.3956973128 611.565630518 
-42.2023426078 -42.2023426078 612.550438296 
-44.0017120012 -44.0017120012 613.535246075 
-45.793215207 -45.793215207 614.520053854 
-47.7285066889 -47.7285066889 617.47447719 
-49.271431361 -49.271431361 615.504861632 
-51.4407268225 -51.4407268225 621.413708304 
-53.2897191661 -53.2897191661 623.383323861 
-55.0462576298 -55.0462576298 624.36813164 
-56.8807126939 -56.8807126939 626.337747197 
-58.3401555253 -58.3401555253 624.36813164 
-60.3389985069 -60.3389985069 628.307362754 
-61.7571800165 -61.7571800165 626.337747197 
-58.0668918392 -58.0668918392 574.142934931 
-66.0376670865 -66.0376670865 637.170632762 
-67.5094128377 -67.5094128377 636.185824983 
-69.1695702399 -69.1695702399 637.170632762 
-71.0319941947 -71.0319941947 640.125056098 
-72.8869123619 -72.8869123619 643.079479433 
-75.0753271728 -75.0753271728 648.988326105 
-77.1521268683 -77.1521268683 653.912364998 
-79.2279469078 -79.2279469078 658.836403891 
-81.5430492648 -81.5430492648 665.730058342 
-83.4954707181 -83.4954707181 669.669289456 
-85.9392490285 -85.9392490285 677.547751685 
-88.6445287213 -88.6445287213 687.395829471 
-91.2350980896 -91.2350980896 696.259099478 
-93.310163382 -93.310163382 701.183138372 
-96.1748192204 -96.1748192204 712.016023936 
-98.783136484 -98.783136484 720.879293944 
-101.258856923 -101.258856923 728.757756173 
-104.149629778 -104.149629778 739.590641737 
-103.536702578 -103.536702578 725.803332837 
-101.277676657 -101.277676657 701.183138372 
-98.7569265505 -98.7569265505 675.578136128 
-98.0112035455 -98.0112035455 662.775635006 
-97.045448819 -97.045448819 648.988326105 
-95.8563209232 -95.8563209232 634.216209426 
-94.7415517352 -94.7415517352 620.428900525 
-93.7073710142 -93.7073710142 607.626399403 
-92.7597674139 -92.7597674139 595.80870606 
-91.4403190561 -91.4403190561 582.02139716 
-90.6787877036 -90.6787877036 572.173319373 
-89.3909291284 -89.3909291284 559.370818251 
-89.3116225959 -89.3116225959 554.446779358 
-88.7132533085 -88.7132533085 546.568317129 
-87.585904315 -87.585904315 535.735431565 
-87.3795852561 -87.3795852561 530.811392672 
-86.972613269 -86.972613269 524.902546 
-86.6908976455 -86.6908976455 519.978507107 
-86.3729085293 -86.3729085293 515.054468214 
-84.524701521 -84.524701521 501.267159313 
-83.9613065 -83.9613065 495.358312642 
-82.8591189094 -82.8591189094 486.495042634 
-82.2230424035 -82.2230424035 480.586195963 
-81.8915166704 -81.8915166704 476.646964848 
-81.1898854925 -81.1898854925 470.738118176 
-80.6264194893 -80.6264194893 465.814079283 
-80.0326112582 -80.0326112582 460.89004039 
-79.066141612 -79.066141612 453.99638594 
-78.7567825442 -78.7567825442 451.041962604 
-78.4209027466 -78.4209027466 448.087539268 
-78.0589191726 -78.0589191726 445.133115932 
-77.498270192 -77.498270192 441.193884818 
-77.2583514165 -77.2583514165 439.224269261 
-76.8206433684 -76.8206433684 436.269845925 
-76.5321255874 -76.5321255874 434.300230368 
-76.3934939023 -76.3934939023 433.315422589 
93.338053503 93.338053503 439.188289244 
106.801420051 106.801420051 502.767885683 
153.643671235 153.643671235 723.829251761 
132.324426127 132.324426127 624.058192734 
0.207120353018 0.207120353018 0.978147637515 
5.99640420089 5.99640420089 28.3662814879 
16.3025805779 16.3025805779 77.2736633637 
101.502853312 101.502853312 482.226785295 
16.0174393314 16.0174393314 76.2955157261 
16.5849832776 16.5849832776 79.2299586387 
16.7355115309 16.7355115309 80.2081062762 
15.8627164742 15.8627164742 76.2955157261 
18.0298663529 18.0298663529 87.0551397388 
14.9284393968 14.9284393968 72.3829251761 
15.8653422038 15.8653422038 77.2736633637 
14.3897322025 14.3897322025 70.4266299011 
14.7131823493 14.7131823493 72.3829251761 
13.2482865965 13.2482865965 65.5358917135 
13.1711428137 13.1711428137 65.5358917135 
13.8714787399 13.8714787399 69.4484822635 
13.781252402 13.781252402 69.4484822635 
10.2169280693 10.2169280693 51.8418247883 
93.5865748978 93.5865748978 478.314194745 
92.6890864578 92.6890864578 477.336047107 
91.9547476606 91.9547476606 477.336047107 
91.3792682731 91.3792682731 478.314194745 
89.8465198368 89.8465198368 474.401604195 
89.217457018 89.217457018 475.379751832 
88.1941236331 88.1941236331 474.401604195 
87.5075572258 87.5075572258 475.379751832 
86.7907066634 86.7907066634 476.35789947 
86.7489572476 86.7489572476 481.248637657 
85.6153389607 85.6153389607 480.27049002 
84.1148609203 84.1148609203 477.336047107 
83.6228023181 83.6228023181 480.27049002 
82.5881718884 82.5881718884 480.27049002 
81.0302475761 81.0302475761 477.336047107 
80.4437625059 80.4437625059 480.27049002 
79.4962144315 79.4962144315 481.248637657 
1.59269541661 1.59269541661 9.78147637515 
77.8287967884 77.8287967884 485.161228207 
76.9452104568 76.9452104568 487.117523482 
76.1805309589 76.1805309589 490.051966395 
75.6769164251 75.6769164251 494.942704582 
74.3899652684 74.3899652684 494.942704582 
73.5136369785 73.5136369785 497.877147495 
72.7410502137 72.7410502137 501.789738045 
71.5077156168 71.5077156168 502.767885683 
0.136402341818 0.136402341818 0.978147637515 
10.1568729352 10.1568729352 74.3392204511 
10.0749170948 10.0749170948 75.3173680886 
9.9842525147 9.9842525147 76.2955157261 
10.3853255836 10.3853255836 81.1862539137 
10.5098413738 10.5098413738 84.1206968263 
9.65951612831 9.65951612831 79.2299586387 
9.64981136998 9.64981136998 81.1862539137 
8.26629187018 8.26629187018 71.4047775386 
8.26323519653 8.26323519653 73.3610728136 
8.88784773879 8.88784773879 81.1862539137 
9.66790038835 9.66790038835 90.9677302889 
8.66859940546 8.66859940546 84.1206968263 
8.00391446291 8.00391446291 80.2081062762 
7.73998212462 7.73998212462 80.2081062762 
7.20026435641 7.20026435641 77.2736633637 
7.20512555377 7.20512555377 80.2081062762 
6.76523340822 6.76523340822 78.2518110012 
7.55510526314 7.55510526314 90.9677302889 
5.14042443119 5.14042443119 64.557744076 
3.12937891372 3.12937891372 41.0822007756 
7.25323312992 7.25323312992 99.7710590265 
6.90433663946 6.90433663946 99.7710590265 
6.1035982093 6.1035982093 92.9240255639 
6.32191652114 6.32191652114 101.727354302 
6.01738189842 6.01738189842 102.705501939 
5.91928507984 5.91928507984 107.596240127 
5.53284319756 5.53284319756 107.596240127 
0.0467701450954 0.0467701450954 0.978147637515 
0.0432274690524 0.0432274690524 0.978147637515 
1.5471933955 1.5471933955 38.1477578631 
1.40804420867 1.40804420867 38.1477578631 
1.2034165741 1.2034165741 36.191462588 
1.3889250981 1.3889250981 46.9510866007 
1.34292951109 1.34292951109 51.8418247883 
0.91278295517 0.91278295517 41.0822007756 
0.887926172548 0.887926172548 47.9292342382 
0.710668426941 0.710668426941 47.9292342382 
0.652890863526 0.652890863526 58.6888582509 
0.442632890326 0.442632890326 59.6670058884 
0.206843256453 0.206843256453 55.7544153383 
1.84823480301e-05 1.84823480301e-05 65.5358917135 
-0.232209755694 -0.232209755694 62.6014488009 
-0.399064903313 -0.399064903313 53.7981200633 
-0.544048171816 -0.544048171816 48.9073818757 
-0.928184762661 -0.928184762661 62.6014488009 
-1.57647416355 -1.57647416355 85.0988444638 
-0.0217323788145 -0.0217323788145 0.978147637515 
-0.0253377450626 -0.0253377450626 0.978147637515 
-20.9492246776 -20.9492246776 708.178889561 
-0.0325242273535 -0.0325242273535 0.978147637515 
-4.47679113666 -4.47679113666 121.290307052 
-3.64973972343 -3.64973972343 89.9895826513 
-0.0432269293967 -0.0432269293967 0.978147637515 
-29.8390096002 -29.8390096002 624.058192734 
-32.0901490093 -32.0901490093 624.058192734 
-34.3853246143 -34.3853246143 625.036340372 
-36.7343438322 -36.7343438322 626.992635647 
-38.9037640015 -38.9037640015 626.014488009 
-41.0543937186 -41.0543937186 625.036340372 
-43.1179269156 -43.1179269156 623.080045097 
-45.0834929207 -45.0834929207 620.145602184 
-47.1638847334 -47.1638847334 619.167454547 
-49.2231348973 -49.2231348973 618.189306909 
-51.3418997495 -51.3418997495 618.189306909 
-53.7832850424 -53.7832850424 622.101897459 
-55.5318711817 -55.5318711817 618.189306909 
-57.7840856398 -57.7840856398 620.145602184 
-59.8429647659 -59.8429647659 620.145602184 
-61.9812234018 -61.9812234018 621.123749822 
-63.9054152692 -63.9054152692 620.145602184 
-66.2196155078 -66.2196155078 623.080045097 
-68.4254171492 -68.4254171492 625.036340372 
-70.8431689058 -70.8431689058 628.948930922 
-72.4713038267 -72.4713038267 626.014488009 
-75.4542522998 -75.4542522998 634.817816747 
-77.7528475063 -77.7528475063 637.75225966 
-80.1677995376 -80.1677995376 641.66485021 
-82.3315683154 -82.3315683154 643.621145485 
-84.6098525271 -84.6098525271 646.555588397 
-86.4869919097 -86.4869919097 646.555588397 
-89.4069276996 -89.4069276996 654.380769497 
-91.9348977433 -91.9348977433 659.271507685 
-94.0448896809 -94.0448896809 661.22780296 
-97.1295859758 -97.1295859758 670.031131698 
-98.9326187743 -98.9326187743 670.031131698 
