0.0 0.0 27.0 
0.0 0.0 27.0 
0.0 0.0 25.0 
0.0 0.0 27.0 
0.0 0.0 22.0 
0.0 0.0 25.0 
0.0 0.0 19.0 
-0.0 0.0 25.0 
-0.0 0.0 8.0 
-0.0 0.0 27.0 
-0.0 0.0 25.0 
-0.0 0.0 27.0 
-0.0 0.0 22.0 
-0.0 0.0 22.0 
-0.0 0.0 19.0 
-0.0 0.0 18.0 
-0.0 0.0 9.0 
-0.0 0.0 27.0 
-0.0 0.0 25.0 
-0.0 0.0 25.0 
-0.0 0.0 20.0 
-0.0 0.0 18.0 
-0.0 0.0 8.0 
-0.0 0.0 24.0 
-0.0 0.0 22.0 
-0.0 0.0 22.0 
-0.0 0.0 17.0 
-0.0 0.0 8.0 
-0.0 0.0 24.0 
-0.0 0.0 22.0 
-0.0 0.0 25.0 
-0.0 0.0 10.0 
-0.0 0.0 27.0 
-0.0 0.0 22.0 
-0.0 0.0 25.0 
-0.0 0.0 8.0 
-0.0 0.0 27.0 
-0.0 0.0 23.0 
-0.0 0.0 25.0 
-0.0 0.0 8.0 
-0.0 0.0 23.0 
-0.0 0.0 20.0 
-0.0 0.0 17.0 
-0.0 0.0 9.0 
-0.0 0.0 22.0 
-0.0 0.0 17.0 
-0.0 0.0 8.0 
-0.0 0.0 22.0 
-0.0 0.0 24.0 
-0.0 0.0 8.0 
-0.0 0.0 27.0 
-0.0 0.0 19.0 
-0.0 0.0 9.0 
-0.0 0.0 24.0 
-0.0 0.0 19.0 
-0.0 0.0 9.0 
-0.0 0.0 24.0 
-0.0 0.0 19.0 
-0.0 0.0 9.0 
-0.0 0.0 25.0 
-0.0 0.0 20.0 
-0.0 0.0 9.0 
-0.0 0.0 22.0 
-0.0 0.0 15.0 
-0.0 0.0 10.0 
-0.0 0.0 19.0 
-0.0 0.0 10.0 
-0.0 0.0 22.0 
-0.0 0.0 23.0 
-0.0 0.0 12.0 
-0.0 0.0 25.0 
-0.0 0.0 15.0 
-0.0 0.0 12.0 
-0.0 0.0 13.0 
-0.0 0.0 23.0 
-0.0 0.0 18.0 
-0.0 0.0 15.0 
-0.0 0.0 19.0 
-0.0 0.0 14.0 
-0.0 0.0 22.0 
-0.0 0.0 14.0 
-0.0 0.0 30.0 
-0.0 0.0 17.0 
-0.0 0.0 14.0 
-0.0 0.0 19.0 
-0.0 0.0 15.0 
-0.0 0.0 23.0 
-0.0 0.0 15.0 
-0.0 0.0 23.0 
-0.0 0.0 15.0 
-0.0 0.0 23.0 
-0.0 0.0 18.0 
-0.0 0.0 13.0 
-0.0 0.0 19.0 
-0.0 0.0 13.0 
-0.0 0.0 18.0 
0.871423951092 0.0152107487957 9.96194704516 
0.871025765281 0.0304168642578 9.96194704516 
1.04443470844 0.0547364573569 11.9543364542 
1.04332035415 0.0729560043774 11.9543364542 
1.04188819491 0.0911533283298 11.9543364542 
1.04013866697 0.109322886142 11.9543364542 
2.50867473285 0.308026262735 28.889646431 
2.41660937743 0.339632008416 27.8934517264 
2.32423128568 0.368121755254 26.8972570219 
1.63080004078 0.28755379944 18.9276993858 
1.02665252268 0.19956086196 11.9543364542 
1.02301334446 0.217448009888 11.9543364542 
0.849218789165 0.196057434299 9.96194704516 
0.84566777811 0.210848472797 9.96194704516 
1.01023100267 0.270690341901 11.9543364542 
1.00535294598 0.288280061684 11.9543364542 
1.00016864956 0.305781968716 11.9543364542 
0.994679692597 0.323190731755 11.9543364542 
1.07129505933 0.368876135261 12.9505311587 
1.06469412538 0.387516614732 12.9505311587 
0.976402039229 0.374805279774 11.9543364542 
0.969712080168 0.391788746054 11.9543364542 
2.24636238846 0.953523363071 27.8934517264 
1.11468949697 0.496291266694 13.9467258632 
2.21171651013 1.03133935396 27.8934517264 
1.88004027187 0.916956016375 23.9086729084 
1.16484428597 0.593517224375 14.9429205677 
0.769539053175 0.40917076515 9.96194704516 
0.91473700846 0.507046492258 11.9543364542 
0.754790429856 0.435778012769 9.96194704516 
0.74707010324 0.448884540011 9.96194704516 
0.886946654661 0.554225199484 11.9543364542 
0.877139013348 0.569620128876 11.9543364542 
0.722553489538 0.487367955627 9.96194704516 
0.856725245838 0.599884816528 11.9543364542 
0.705104448219 0.512287796572 9.96194704516 
0.835267692348 0.629418638171 11.9543364542 
0.686796347194 0.536583494804 9.96194704516 
0.812792495557 0.658185611453 11.9543364542 
0.801181790431 0.672270539767 11.9543364542 
1.90754034179 1.65819749674 28.889646431 
1.42492505701 1.2830066866 21.9162834994 
1.21109152199 1.12935967962 18.9276993858 
0.626945810369 0.605433745571 9.96194704516 
0.616284056772 0.61628323909 9.96194704516 
0.605434577399 0.626945007082 9.96194704516 
0.713280812519 0.764898962249 11.9543364542 
0.699822860282 0.777230920759 11.9543364542 
0.686151735583 0.789326127602 11.9543364542 
0.728294236335 0.867945973338 12.9505311587 
0.548488908218 0.677326351899 9.96194704516 
0.64390128725 0.824154762308 11.9543364542 
0.6294197464 0.835266857238 11.9543364542 
0.665975351731 0.916634899073 12.9505311587 
0.499904961022 0.713937041594 9.96194704516 
1.41336985149 2.09540324441 28.889646431 
1.32911634954 2.04665593435 27.8934517264 
1.29319487799 2.06954047841 27.8934517264 
0.897771062438 1.49413901532 19.9238940903 
0.435779014221 0.754789851667 9.96194704516 
0.507047705926 0.914736335713 11.9543364542 
0.491006143404 0.923446212347 11.9543364542 
0.395679179922 0.776562332328 9.96194704516 
0.382066046167 0.783349606358 9.96194704516 
0.442003837908 0.947877917895 11.9543364542 
0.354494818327 0.796206313209 9.96194704516 
0.442708659497 1.04295337869 12.9505311587 
0.424439202051 1.05052085704 12.9505311587 
0.374806575259 0.976401541939 11.9543364542 
0.298090790279 0.818995085557 9.96194704516 
0.340502359984 0.988887295299 11.9543364542 
0.754114786811 2.32091828217 27.8934517264 
0.484156884912 1.58359971943 18.9276993858 
0.648633140057 2.26204326786 26.8972570219 
0.609056285107 2.27301894792 26.8972570219 
0.274104473272 1.09936774786 12.9505311587 
0.176452704934 0.764296676133 8.96575234064 
0.163087025413 0.767259791966 8.96575234064 
0.166301853431 0.855543548255 9.96194704516 
0.151345243778 0.858315610135 9.96194704516 
0.122708279677 0.774743599086 8.96575234064 
0.145557949183 1.03568954006 11.9543364542 
0.0955953903823 0.778554100602 8.96575234064 
0.0819931996446 0.780103891439 8.96575234064 
0.0911547107017 1.04188807397 11.9543364542 
0.0607978238746 0.869433547793 9.96194704516 
0.0410533823306 0.783325976861 8.96575234064 
0.0577942378677 1.65494887735 18.9276993858 
0.0152119049966 0.871423930909 9.96194704516 
3.23785552347e-06 2.44035874088 27.8934517264 
-0.0410659000061 2.35284472244 26.8972570219 
-0.0821224131802 2.35176967522 26.8972570219 
-0.123153911114 2.34997825739 26.8972570219 
-0.164147895237 2.34747101463 26.8972570219 
-0.212687873901 2.43107273698 27.8934517264 
-0.200422761168 1.90692115536 21.9162834994 
-0.201808129328 1.6436147479 18.9276993858 
-0.145555200887 1.03568992631 11.9543364542 
-0.381752696345 2.4103144324 27.8934517264 
-0.40862600863 2.3174532317 26.8972570219 
-0.449008874555 2.30996877178 26.8972570219 
-0.489254968258 2.30178067419 26.8972570219 
-0.176450676803 0.764297144363 8.96575234064 
-0.590372582155 2.36787056201 27.8934517264 
-0.563935419857 2.10464867046 24.9048676129 
-0.672650364835 2.34582443309 27.8934517264 
-0.611561283393 2.00033811054 23.9086729084 
-0.727176177042 2.23803027316 26.8972570219 
-0.340499735881 0.988888198849 11.9543364542 
-0.804839265903 2.21128886672 26.8972570219 
-0.749607968577 1.95280507304 23.9086729084 
-0.88152178375 2.18185334998 26.8972570219 
-0.408651592546 0.962727280109 11.9543364542 
-0.957130304906 2.1497595855 26.8972570219 
-1.03133641946 2.21171787851 27.8934517264 
-0.764127934955 1.5667012404 19.9238940903 
-0.474812543092 0.931876058755 11.9543364542 
-1.10475830915 2.07775690936 26.8972570219 
-1.18310565004 2.13438792281 27.8934517264 
-0.958709424897 1.66054021769 21.9162834994 
-0.448883548801 0.747070698817 9.96194704516 
-1.1546333806 1.84780706251 24.9048676129 
-1.28164267146 1.97356448051 26.8972570219 
-0.925997294198 1.37285285873 18.9276993858 
-0.599883679829 0.856726041761 11.9543364542 
-1.1782597804 1.62174179421 22.9124782039 
-0.996577755741 1.32250850181 18.9276993858 
-0.482924325209 0.618117353217 8.96575234064 
-1.48091519935 1.82878507987 26.8972570219 
-1.56862877911 1.86942625892 27.8934517264 
-1.02922446155 1.18399192255 17.9315046813 
-0.58318399819 0.647693981499 9.96194704516 
-1.36711766701 1.46605997208 22.9124782039 
-1.6346688671 1.69275585687 26.8972570219 
-0.616282421407 0.616284874453 9.96194704516 
-1.69274935024 1.63467560491 26.8972570219 
-1.21108852513 1.12936289336 18.9276993858 
-0.647691660197 0.583186576256 9.96194704516 
-1.57865043444 1.37230556571 23.9086729084 
-1.00147500812 0.840340832216 14.9429205677 
-0.812790748999 0.658187768269 11.9543364542 
-1.85434629296 1.44878035665 26.8972570219 
-1.25289903319 0.94413128194 17.9315046813 
-0.846123706578 0.614747601154 11.9543364542 
-1.42787275664 0.999811816539 19.9238940903 
-0.722552196261 0.487369872986 9.96194704516 
-1.97355937906 1.28165052699 26.8972570219 
-1.99562666394 1.24701199442 26.8972570219 
-0.747068912082 0.448886522427 9.96194704516 
-1.736015329 1.00229403605 22.9124782039 
-1.29587552253 0.718319302756 16.9353099768 
-0.923445560881 0.491007368627 11.9543364542 
-1.47546743395 0.751792399496 18.9276993858 
-0.940018919321 0.458480502614 11.9543364542 
-1.89575466289 0.884010191095 23.9086729084 
-1.43317051716 0.638092574512 17.9315046813 
-0.802271377926 0.34054618714 9.96194704516 
-1.85861282766 0.750933361935 22.9124782039 
-0.976401044646 0.374807870743 11.9543364542 
-1.88368778712 0.68561131691 22.9124782039 
-1.40092302832 0.482380202048 16.9353099768 
-1.07756873789 0.350126152161 12.9505311587 
-1.6669463969 0.50964103792 19.9238940903 
-0.837793484167 0.240235607898 9.96194704516 
-1.59953128358 0.428597285844 18.9276993858 
-1.01480066232 0.253020860222 11.9543364542 
-2.46273297983 0.568573094551 28.889646431 
-1.53451915117 0.326176086818 17.9315046813 
-1.02665199313 0.199563586274 11.9543364542 
-1.54496773679 0.272423488655 17.9315046813 
-1.03299124837 0.163612410137 11.9543364542 
-2.41660847618 0.339638421104 27.8934517264 
-1.03807196502 0.127461897818 11.9543364542 
-2.42698954602 0.255093174568 27.8934517264 
-0.868239960852 0.0759634108945 9.96194704516 
-2.43441370795 0.170237136817 27.8934517264 
-1.30554320398 0.0684240360725 14.9429205677 
-0.871025684564 0.0304191756028 9.96194704516 
-1.56856303931 0.0273835101553 17.9315046813 
2.08345902112 0.0363668817648 11.8176933433 
2.25604926266 0.0787829096642 12.802501122 
2.08092065152 0.109056337926 11.8176933433 
2.25192545916 0.157469834651 12.802501122 
2.07584700493 0.181612925962 11.8176933433 
2.24505803599 0.235964907224 12.802501122 
4.99825696844 0.613708263578 28.5594255797 
4.81482692936 0.676679216535 27.5746178011 
3.43020281314 0.543290286224 19.6961555722 
2.05211919758 0.361843670231 11.8176933433 
2.04549161295 0.397602947826 11.8176933433 
2.03824095281 0.433241111916 11.8176933433 
2.19956687793 0.507809582356 12.802501122 
2.19036938207 0.546119943346 12.802501122 
2.3482358088 0.629207332052 13.7873089006 
2.00305456191 0.574366141734 11.8176933433 
1.99272542463 0.609236755942 11.8176933433 
2.31208749906 0.751242089554 13.7873089006 
2.13443693016 0.734944905138 12.802501122 
2.12128529927 0.772083999017 12.802501122 
2.10748750541 0.808987909027 12.802501122 
2.09304775153 0.8456453939 12.802501122 
4.63547251132 1.96763948734 28.5594255797 
4.44179109625 1.97761092711 27.5746178011 
3.7770861862 1.76128251938 23.6353866867 
2.3411077039 1.14183340973 14.7721166792 
2.01138029606 1.024848441 12.802501122 
1.83986575126 0.978272998764 11.8176933433 
1.97438835501 1.09442023282 12.802501122 
1.95498739603 1.12871134653 12.802501122 
1.4884545615 0.894352803395 9.84807778612 
1.91440504788 1.19625178581 12.802501122 
1.89323602048 1.22948053794 12.802501122 
1.72752950402 1.16523210371 11.8176933433 
1.84917449845 1.29480450135 12.802501122 
1.68581116187 1.22481213632 11.8176933433 
1.94154158793 1.46305486663 13.7873089006 
3.9682607281 3.10034148912 28.5594255797 
4.04849789972 3.27840510359 29.5442333584 
3.85764310875 3.23694303331 28.5594255797 
3.27634756404 2.84808200914 24.6201944653 
2.968051301 2.67244206747 22.6505789081 
1.77797488973 1.65798630028 13.7873089006 
1.74876826966 1.68876369556 13.7873089006 
1.71902895874 1.71902667794 13.7873089006 
1.68876601582 1.74876602902 13.7873089006 
1.65798865928 1.77797268992 13.7873089006 
1.39431965503 1.54854665489 11.8176933433 
1.48100490521 1.70369876831 12.802501122 
1.33942682135 1.59626433682 11.8176933433 
1.52992488839 1.88929698997 13.7873089006 
1.38981061394 1.77887365481 12.802501122 
1.25404923656 1.66417684008 11.8176933433 
1.32688223747 1.82629366486 12.802501122 
2.78881497962 3.98283368109 27.5746178011 
2.71888025684 4.03089856865 27.5746178011 
2.64811733819 4.07773560753 27.5746178011 
2.66856734224 4.27059233541 28.5594255797 
2.68306433481 4.46536012463 29.5442333584 
2.51790032858 4.36112238887 28.5594255797 
2.35721845137 4.25252563711 27.5746178011 
1.22284429986 2.29983056661 14.7721166792 
1.10368581043 2.16610039294 13.7873089006 
1.06571408151 2.18503244299 13.7873089006 
0.8806437654 1.88854192467 11.8176933433 
0.918179238069 2.0622589336 12.802501122 
0.814198194894 1.91812547614 11.8176933433 
0.780598311641 1.93204304264 11.8176933433 
0.80899070523 2.10748643205 12.802501122 
0.772086813526 2.12128427487 12.802501122 
0.678413295782 1.97024857388 11.8176933433 
0.643924420473 1.98178843056 11.8176933433 
0.609239399879 1.9927246163 11.8176933433 
1.2923297986 4.50687104965 26.5898100225 
1.12359008514 4.19327673923 24.6201944653 
1.17626459896 4.71771710841 27.5746178011 
1.05468750152 4.56832980866 26.5898100225 
0.866487632487 4.07648075597 23.6353866867 
0.927746544138 4.77281253262 27.5746178011 
0.844308250267 4.78827700747 27.5746178011 
0.733448030489 4.6307728246 26.5898100225 
0.604183575734 4.29895181387 24.6201944653 
0.57138973005 4.65354883319 26.5898100225 
0.490087147754 4.66281219374 26.5898100225 
0.363231360371 4.15169352794 23.6353866867 
0.327058939026 4.67707551969 26.5898100225 
0.209029939521 3.98843097141 22.6505789081 
0.139390443732 3.99147158746 22.6505789081 
0.0727392921752 4.16691794573 23.6353866867 
6.22067372962e-06 4.68849687709 26.5898100225 
-0.0606068624034 3.47243178228 19.6961555722 
-0.0727199227842 2.08250710817 11.8176933433 
-0.245370548184 4.68207179148 26.5898100225 
-0.327046527985 4.67707638756 26.5898100225 
-0.408622886413 4.67065630326 26.5898100225 
-0.508225692138 4.8355102903 27.5746178011 
-0.465566755246 3.79178176619 21.6657711295 
-0.555838394631 3.95503714374 22.6505789081 
-0.543285735048 3.43020353397 19.6961555722 
-0.271380710617 1.53908975825 8.86327000751 
-0.894600526225 4.60235731609 26.5898100225 
-0.974786417074 4.58604343717 26.5898100225 
-0.937489225812 4.06074009542 23.6353866867 
-0.96620706577 3.8752701887 22.6505789081 
-0.898863166321 3.35462377661 19.6961555722 
-0.430772613068 1.50229149298 8.86327000751 
-1.42154626134 4.64969454358 27.5746178011 
-1.44881811364 4.45902781334 26.5898100225 
-1.52641815198 4.43306334173 26.5898100225 
-1.12842634658 3.10034154997 18.7113477936 
-0.622296240633 1.62114506059 9.84807778612 
-1.82138409784 4.50810526606 27.5746178011 
-1.69623563536 3.99609924308 24.6201944653 
-1.55383252653 3.4899807801 21.6657711295 
-0.880638753981 1.88854426153 11.8176933433 
-1.90305050594 3.90184869812 24.6201944653 
-2.20736012497 4.33220664332 27.5746178011 
-1.79349602234 3.37308959025 21.6657711295 
-0.841859702467 1.51876139006 9.84807778612 
-2.43106500573 4.21074530928 27.5746178011 
-2.50418231986 4.16767609474 27.5746178011 
-1.84038345506 2.94524097702 19.6961555722 
-0.945752327695 1.45633665519 9.84807778612 
-2.62176707617 3.88694486259 26.5898100225 
-2.29080362316 3.27161945976 22.6505789081 
-2.04134983266 2.80968797824 19.6961555722 
-1.25404482052 1.6641801678 11.8176933433 
-2.88651993273 3.69459140426 26.5898100225 
-2.07631983031 2.56405142468 18.7113477936 
-1.11618548793 1.33022324259 9.84807778612 
-2.84807766209 3.27635134286 24.6201944653 
-2.55624516732 2.83900898387 21.6657711295 
-1.18427424376 1.26998363539 9.84807778612 
-3.25689693809 3.3726288413 26.5898100225 
-2.70132405265 2.70133480498 21.6657711295 
-2.24841058505 2.17127357495 17.726540015 
-1.65097259796 1.53956308841 12.802501122 
-3.22613501024 2.90483689506 24.6201944653 
-3.01423280588 2.62024344695 22.6505789081 
-1.33021879973 1.11619078272 9.84807778612 
-3.77858992015 3.05985479019 27.5746178011 
-2.59988956966 2.03126511606 18.7113477936 
-1.38681264684 1.04504287049 9.84807778612 
-3.37161582343 2.44963321954 23.6353866867 
-3.27161034145 2.29081664544 22.6505789081 
-1.4396053433 0.971030573218 9.84807778612 
-3.34956564866 2.17524368627 22.6505789081 
-2.20892523867 1.38029638368 14.7721166792 
-1.7861426259 1.07322810377 11.8176933433 
-4.06035221722 2.34425741731 26.5898100225 
-1.97438545087 1.09442547203 12.802501122 
-3.67972631064 1.95655576202 23.6353866867 
-2.78498433673 1.41902830852 17.726540015 
-1.87288373914 0.913471697655 11.8176933433 
-3.46232471976 1.6145181637 21.6657711295 
-2.06225771536 0.918181974262 12.802501122 
-3.51656139241 1.4927013564 21.6657711295 
-4.50809801621 1.82140204182 27.5746178011 
-1.94537110032 0.746763232091 11.8176933433 
-4.07939086628 1.48478774622 24.6201944653 
-1.97024767376 0.678415909897 11.8176933433 
-3.9635751524 1.2878540998 23.6353866867 
-3.15514602927 0.964633236041 18.7113477936 
-2.00305303777 0.574371457017 11.8176933433 
-3.35462019876 0.898876519007 19.6961555722 
-2.35885777387 0.5881354292 13.7873089006 
-4.22993371231 0.976568113659 24.6201944653 
-2.03823980316 0.43324652057 11.8176933433 
-4.26143866222 0.828350782751 24.6201944653 
-3.76221676855 0.663390045472 21.6657711295 
-2.22963089145 0.353144602573 12.802501122 
-3.2672027693 0.459183852467 18.7113477936 
-2.24059722133 0.275116546541 12.802501122 
-4.31741809583 0.453790124397 24.6201944653 
-2.4218209435 0.211888173476 13.7873089006 
-4.85030008893 0.339178668417 27.5746178011 
-2.2543303923 0.118150348155 12.802501122 
-4.3385558723 0.151517108256 24.6201944653 
-2.95156680986 0.0515275814146 16.7417322364 
3.10535294652 0.0542040915129 11.5911106023 
3.36259516232 0.117424311293 12.5570364858 
3.10156955869 0.162546235314 11.5911106023 
3.61463708066 0.252759833191 13.5229623693 
3.35184134187 0.293247870393 12.5570364858 
3.0888119671 0.324646943449 11.5911106023 
7.19290987625 0.883177527306 27.0459247386 
7.43270083162 1.04459708506 28.0118506221 
6.3908086894 1.01220378829 24.1481470881 
5.09773597035 0.898867617218 19.3185176704 
3.30282691182 0.642003960313 12.5570364858 
3.29111937155 0.699548409139 12.5570364858 
3.53059465891 0.815101289803 13.5229623693 
3.51583146617 0.87659446705 13.5229623693 
3.49999731891 0.937820625582 13.5229623693 
2.98551174889 0.856080956013 11.5911106023 
2.97011638159 0.908054891416 11.5911106023 
3.19996764706 1.03973157705 12.5570364858 
3.18133447457 1.09542030996 12.5570364858 
2.91852206623 1.06225418565 11.5911106023 
3.38279513343 1.29853218804 13.5229623693 
3.11964475257 1.26041711838 12.5570364858 
6.67083269593 2.83159781315 27.0459247386 
6.85684134848 3.05285955201 28.0118506221 
6.56794775665 3.06268139029 27.0459247386 
5.35037197125 2.6095482327 22.216295321 
3.22853039913 1.64501678412 13.5229623693 
2.74228217304 1.4580958437 11.5911106023 
3.16915345961 1.75668867692 13.5229623693 
3.13801236412 1.8117304327 13.5229623693 
3.10591540128 1.86622031878 13.5229623693 
2.85338146612 1.78298875581 12.5570364858 
2.60476565988 1.69155279642 11.5911106023 
3.00398851684 2.02621364837 13.5229623693 
2.75615666983 1.92987955735 12.5570364858 
2.51266696668 1.82555737257 11.5911106023 
2.48042393364 1.86913137992 11.5911106023 
2.85532956418 2.23082537149 13.5229623693 
5.0285025825 4.07199631523 24.1481470881 
5.55147112107 4.65823179163 27.0459247386 
5.46932832071 4.75440877007 27.0459247386 
5.57785949538 5.02232099455 28.0118506221 
4.73220555911 4.41284746619 24.1481470881 
3.35121845761 3.23622984549 17.3866659034 
2.37916473946 2.3791615828 12.5570364858 
2.3372803219 2.42032134052 12.5570364858 
2.29468394732 2.46074384616 12.5570364858 
2.25138859096 2.50041678666 12.5570364858 
2.37720801337 2.73466100629 13.5229623693 
1.99638821027 2.37919926023 11.5911106023 
2.11744155325 2.61481853349 12.5570364858 
2.07148421993 2.65137470402 12.5570364858 
2.02489589351 2.68712324149 12.5570364858 
1.97769076523 2.72205325658 12.5570364858 
1.9298832142 2.75615410928 12.5570364858 
4.05243526809 6.00797165694 27.0459247386 
3.94696458895 6.07778130292 27.0459247386 
3.97744490063 6.36523030101 28.0118506221 
3.73244887938 6.21182585038 27.0459247386 
3.75287880641 6.50016348924 28.0118506221 
3.51338576347 6.33830225768 27.0459247386 
3.03770725447 5.71308383009 24.1481470881 
3.40754364026 6.68766559138 28.0118506221 
2.26917854917 4.65249435557 19.3185176704 
1.64072684176 3.51854126416 14.4888882528 
1.26325599295 2.83731198536 11.5911106023 
1.31467452256 3.09717057881 12.5570364858 
1.16346577616 2.87967053562 11.5911106023 
1.20578405658 3.14116530979 12.5570364858 
1.15077956276 3.16173071157 12.5570364858 
1.09542453094 3.18133302116 12.5570364858 
0.959756144077 2.95381501619 11.5911106023 
0.983730401497 3.21762477485 12.5570364858 
0.927425326939 3.23430316413 12.5570364858 
0.87083775012 3.249996355 12.5570364858 
1.75319826367 7.0316606062 27.0459247386 
1.63021194835 7.06118715487 27.0459247386 
1.45291730354 6.83539984397 26.0799988551 
1.3827871992 7.11377920618 27.0459247386 
1.25842413321 7.13682868882 27.0459247386 
1.09318924899 6.90207193412 26.0799988551 
0.90052322994 6.40749952211 24.1481470881 
0.851644675434 6.93601910786 26.0799988551 
0.730464843754 6.9498259568 26.0799988551 
0.563946764612 6.44584798612 24.1481470881 
0.487474641783 6.97108515164 26.0799988551 
0.33864656346 6.46160279796 24.1481470881 
0.252923510574 7.24251232173 27.0459247386 
0.0993817214121 5.69314693676 21.2503694375 
3.43399504805e-06 2.58818831505 9.65925883522 
-0.126466599808 7.24582370968 27.0459247386 
-0.252904291917 7.24251299286 27.0459247386 
-0.338629417016 6.46160369656 24.1481470881 
-0.487456143381 6.97108644517 26.0799988551 
-0.609044032772 6.96151744119 26.0799988551 
-0.595178549585 5.66282272937 21.2503694375 
-0.788542842668 6.42224200718 24.1481470881 
-0.684384732567 4.8697014529 18.3525917869 
-0.485853748319 3.06758881554 11.5911106023 
-1.21346215232 6.88194516999 26.0799988551 
-1.33338373921 6.85971920138 26.0799988551 
-1.3452770048 6.32907749943 24.1481470881 
-1.45552965255 6.30463525067 24.1481470881 
-1.50272537531 6.0271416501 23.1822212045 
-0.803842270117 2.99999876846 11.5911106023 
-1.99751298799 6.96619673103 27.0459247386 
-2.04311463903 6.68276456937 26.0799988551 
-1.75953856074 5.4153321988 21.2503694375 
-1.68525552151 4.89436296609 19.3185176704 
-2.39006320509 6.56667782014 26.0799988551 
-0.927519785544 2.4162834688 9.65925883522 
-2.61778080305 6.47926565167 26.0799988551 
-2.42707625342 5.71785981675 23.1822212045 
-2.63176763309 5.91107361982 24.1481470881 
-1.09381166999 2.34569707864 9.65925883522 
-2.83645775419 5.81562547128 24.1481470881 
-2.58501964367 5.07340834272 21.2503694375 
-2.67316904296 5.02752086399 21.2503694375 
-1.50572954751 2.71641924889 11.5911106023 
-3.49404351917 6.05188562383 26.0799988551 
-3.06592661078 5.10257936997 22.216295321 
-2.74305379993 4.38982127965 19.3185176704 
-1.40962445036 2.17063992019 9.65925883522 
-3.90769006376 5.79341161004 26.0799988551 
-4.15665578567 5.93634295775 27.0459247386 
-3.04259006463 4.18778231469 19.3185176704 
-2.02488876298 2.68712861473 12.5570364858 
-3.82426557094 4.89485575547 23.1822212045 
-3.74623047196 4.62622734638 22.216295321 
-1.99638189684 2.37920455782 11.5911106023 
-4.75440151338 5.46933462883 27.0459247386 
-3.98321422962 4.42382488469 22.216295321 
-2.29467741751 2.46074993531 12.5570364858 
-5.03412839861 5.21301316888 27.0459247386 
-3.66024373251 3.66025830171 19.3185176704 
-2.23413991332 2.15749249216 11.5911106023 
-4.54290609524 4.23634562256 23.1822212045 
-3.84679046081 3.46367985923 19.3185176704 
-2.73465785222 2.3772116417 13.5229623693 
-5.7497251443 4.82461247019 28.0118506221 
-4.42507276382 3.58336849975 21.2503694375 
-2.85532364447 2.23083294835 13.5229623693 
-5.1675395286 3.89403742071 24.1481470881 
-6.28165530597 4.56391010038 28.9777765057 
-2.96816320631 2.07833970728 13.5229623693 
-6.22253650447 4.19717335513 28.0118506221 
-4.77539548051 3.10119279872 21.2503694375 
-3.29235777091 2.05730345482 14.4888882528 
-5.32441791273 3.19924896102 23.1822212045 
-6.27601511304 3.62347751939 27.0459247386 
-3.16914879806 1.75669708655 13.5229623693 
-5.2560334157 2.79469764779 22.216295321 
-2.76730802908 1.41002172969 11.5911106023 
-5.5829896138 2.72302166649 23.1822212045 
-4.45681617718 2.07825991284 18.3525917869 
-3.07375283505 1.36853140394 12.5570364858 
-5.24136264301 2.22484076162 21.2503694375 
-3.11964140793 1.26042539663 12.5570364858 
-5.55744348685 2.13331762753 22.216295321 
-4.37777887114 1.59339289532 17.3866659034 
-3.18133156776 1.09542875191 12.5570364858 
-7.13838321175 2.31942015269 28.0118506221 
-3.4651329673 1.05940656836 13.5229623693 
-5.72222649794 1.64083701681 22.216295321 
-3.49999483031 0.937829913136 13.5229623693 
-6.7805276272 1.69059303634 26.0799988551 
-6.05244427877 1.39733255751 23.1822212045 
-3.29111751522 0.699557142417 12.5570364858 
-6.09752346129 1.18525426091 23.1822212045 
-3.82330018883 0.674160858386 14.4888882528 
-6.3908060034 1.01222074687 24.1481470881 
-3.58819906328 0.504297769571 13.5229623693 
-6.16534931369 0.75702566943 23.1822212045 
-3.86101388201 0.405818924859 14.4888882528 
-7.47718279593 0.654188167639 28.0118506221 
-4.9055779849 0.34304421958 18.3525917869 
-3.87696140918 0.203193082009 14.4888882528 
-5.17322284725 0.180666514216 19.3185176704 
-3.88169100334 0.067765414807 14.4888882528 
4.10361330083 0.0716287760917 11.2763126595 
4.10173820825 0.143235733401 11.2763126595 
4.78171597001 0.250598903091 13.1556981028 
4.77661414253 0.334013115823 13.1556981028 
4.42933893494 0.387516614732 12.2160053812 
9.86424121556 1.03677264728 27.2510889272 
9.50517417769 1.16708764204 26.3113962056 
7.4512098771 1.04719835954 20.6732398758 
4.05370849511 0.642043799901 11.2763126595 
4.37870972157 0.772083999017 12.2160053812 
4.02883210304 0.783124951636 11.2763126595 
4.01455109003 0.853318434059 11.2763126595 
4.33230114192 1.00018965352 12.2160053812 
3.98232517937 0.992904310637 11.2763126595 
3.96439009803 1.06225418565 11.2763126595 
3.94524742711 1.1312804883 11.2763126595 
4.25197824743 1.29995904191 12.2160053812 
3.9033630067 1.26827837728 11.2763126595 
3.88063401559 1.3362082328 11.2763126595 
3.85672294776 1.40373106703 11.2763126595 
3.83163708675 1.4708263119 11.2763126595 
9.19634484534 3.71556102984 27.2510889272 
8.500436789 3.60821794215 25.371703484 
4.37431042255 1.94756662409 13.1556981028 
4.02967917805 1.87906845254 12.2160053812 
3.99627120077 1.94910980123 12.2160053812 
3.96164592262 2.01855743319 12.2160053812 
3.92581389079 2.08739019404 12.2160053812 
3.88878602004 2.15558711669 12.2160053812 
3.55437562098 2.05211762561 11.2763126595 
3.51801991266 2.11383743426 11.2763126595 
3.4805925832 2.17491334864 11.2763126595 
3.72894711943 2.42160399483 12.2160053812 
3.40256898667 2.29505927925 11.2763126595 
3.64216286016 2.55026708942 12.2160053812 
3.87379987279 2.81447721144 13.1556981028 
7.92133035578 5.96914379751 27.2510889272 
7.81594806519 6.10648082967 27.2510889272 
7.70818496512 6.24195777175 27.2510889272 
6.28806114307 5.27630346724 22.5526253191 
3.35563546917 2.91700584939 12.2160053812 
3.0500452263 2.7462696375 11.2763126595 
3.50192700317 3.26559561069 13.1556981028 
2.95234387706 2.85104164051 11.2763126595 
2.90213672609 2.90213287556 11.2763126595 
2.85104555766 2.95234009431 11.2763126595 
2.33257161216 2.501373336 9.39692721628 
2.97512982464 3.30421171444 12.2160053812 
2.91701030163 3.35563159889 12.2160053812 
2.19846325425 2.62002255937 9.39692721628 
2.5828833099 3.18959035172 11.2763126595 
2.52682394475 3.23418205371 11.2763126595 
5.76332140033 7.64817338643 26.3113962056 
5.62896470234 7.7475922771 26.3113962056 
5.49289337007 7.8446511801 26.3113962056 
5.16389353595 7.6557733686 25.371703484 
5.0294954957 7.74472965187 25.371703484 
4.53107909722 7.25122853654 23.4923180407 
1.76153508495 2.93168092336 9.39692721628 
1.53909175615 2.66577967368 8.45723449465 
1.65814790486 2.99137166155 9.39692721628 
1.92682652565 3.62382565038 11.2763126595 
1.55274053037 3.04741788031 9.39692721628 
1.94911510346 3.99626861469 12.2160053812 
1.44544138392 3.09975129608 9.39692721628 
1.39112316278 3.12450559895 9.39692721628 
1.60365743133 3.7779697785 11.2763126595 
1.15310893391 2.85403652551 8.45723449465 
1.4708313957 3.83163513526 11.2763126595 
1.05280213808 2.89254081397 8.45723449465 
2.6724267632 7.76126448542 22.5526253191 
2.85363800154 8.78256297888 25.371703484 
2.49993208349 8.17687792817 23.4923180407 
2.63966668661 9.20557382763 26.3113962056 
2.39008375257 8.91987454943 25.371703484 
1.98581918873 7.96464772397 22.5526253191 
1.92345269536 8.33134579783 23.4923180407 
1.9910887746 9.36728323497 26.3113962056 
1.63152145223 8.39339804997 23.4923180407 
1.60357114107 9.09424114027 25.371703484 
1.23059425849 7.76960631622 21.6129325974 
1.2852101198 9.14466496214 25.371703484 
1.12541810154 9.16570217815 25.371703484 
0.858029573877 8.16350883307 22.5526253191 
0.715426138258 8.17724016145 22.5526253191 
0.644180374434 9.2120407059 25.371703484 
0.501210494895 9.56343127503 26.3113962056 
0.274545586502 7.86166453488 21.6129325974 
0.131329404699 7.52329087728 20.6732398758 
5.44548255745e-06 4.10423839516 11.2763126595 
-0.161152495737 9.2331301407 25.371703484 
-0.322268155281 9.22891139615 25.371703484 
-0.483285648988 9.22188144054 25.371703484 
-0.572583048404 8.18848214689 22.5526253191 
-0.834638512416 9.54011573651 26.3113962056 
-0.822257581634 7.82336481366 21.6129325974 
-1.16707503062 9.50517572617 26.3113962056 
-0.95198952119 6.7738284241 18.7938544326 
-0.535032017884 3.37809112247 9.39692721628 
-1.60354700868 9.09424539546 25.371703484 
-1.63149917959 8.39340237933 23.4923180407 
-1.70662621515 8.0291044444 22.5526253191 
-1.76955614039 7.66484282971 21.6129325974 
-1.65483171151 6.63721082791 18.7938544326 
-0.8852074381 3.30365958952 9.39692721628 
-2.54536932097 8.87681008819 25.371703484 
-2.69990321623 8.8310353269 25.371703484 
-2.85361469621 8.78257055124 25.371703484 
-2.11565488298 6.14433999839 17.8541617109 
-1.16977162495 3.21393734185 9.39692721628 
-3.06421089188 7.98258132965 23.4923180407 
-3.4593040814 8.56211875614 25.371703484 
-3.07365752843 7.24111689838 21.6129325974 
-1.66933784595 3.74941114849 11.2763126595 
-3.9026695278 8.36933885553 25.371703484 
-3.44841565206 7.07033054593 21.6129325974 
-3.41601137628 6.7043284014 20.6732398758 
-4.33533804637 8.1536192176 25.371703484 
-1.65813996698 2.99137606158 9.39692721628 
-4.27523522849 7.40495488274 23.4923180407 
-4.93227645532 8.20871967366 26.3113962056 
-2.1749087306 3.48059546887 11.2763126595 
-5.02947494435 7.74474299806 25.371703484 
-4.39885496574 6.52159639418 21.6129325974 
-5.2966985338 7.56449912182 25.371703484 
-1.80930347466 2.4903023188 8.45723449465 
-4.52830801123 6.00929110563 20.6732398758 
-4.21135893759 5.39031459809 18.7938544326 
-1.93715613452 2.39219790421 8.45723449465 
-5.27629512426 6.28806814363 22.5526253191 
-6.05838751715 6.9694047819 25.371703484 
-4.11939838607 4.57507330505 16.9144689893 
-2.09930847708 2.25124157311 8.45723449465 
-5.22690249281 5.41263737631 20.6732398758 
-4.35319353752 4.35321086494 16.9144689893 
-2.46028025963 2.37587456234 9.39692721628 
-5.75315155464 5.36492234123 21.6129325974 
-4.57505690823 4.11941659659 16.9144689893 
-2.58125209894 2.24385750297 9.39692721628 
-6.2880471419 5.27632015315 22.5526253191 
-4.78438038714 3.87433131275 16.9144689893 
-2.69514891761 2.10569019654 9.39692721628 
-5.46297552834 4.11666539135 18.7938544326 
-3.32039348941 2.41241784934 11.2763126595 
-7.56447803886 5.29672864337 25.371703484 
-5.38739125282 3.63385815474 17.8541617109 
-3.44209910167 2.23533589839 11.2763126595 
-6.96117362373 4.34984516939 22.5526253191 
-7.03602860678 4.22769353926 22.5526253191 
-2.96197514624 1.71010588121 9.39692721628 
-5.98273892305 3.31630374758 18.7938544326 
-5.13374938299 2.72967772278 15.9747762677 
-3.65689898417 1.8632934884 11.2763126595 
-5.84069650336 2.84871443908 17.8541617109 
-3.71969925393 1.73453459598 11.2763126595 
-6.87390825706 3.06048007839 20.6732398758 
-5.3521208386 2.27185512888 15.9747762677 
-4.1224949936 1.66560726314 12.2160053812 
-7.0246608369 2.69653354573 20.6732398758 
-4.17811249139 1.52071974295 12.2160053812 
-7.43787506717 2.5610855166 21.6129325974 
-4.87919955149 1.585360919 14.0953908244 
-4.25197479786 1.29997032492 12.2160053812 
-7.56171848152 2.16830766828 21.6129325974 
-4.29475288584 1.15078676431 12.2160053812 
-9.62394614944 2.39954428872 27.2510889272 
-3.99904475798 0.923262599688 11.2763126595 
-7.69455191584 1.6355474168 21.6129325974 
-5.70750920198 1.10944216021 15.9747762677 
-4.37870767276 0.772095618313 12.2160053812 
-6.41836908635 1.01658638157 17.8541617109 
-4.40298601259 0.618810714356 12.2160053812 
-7.46834870625 0.917017250967 20.6732398758 
-4.08175384732 0.429020202589 11.2763126595 
-9.19939411375 0.80486661125 25.371703484 
-4.43542659502 0.310166805925 12.2160053812 
-8.19722623716 0.429619871662 22.5526253191 
-5.81079525654 0.202932708453 15.9747762677 
-4.44558086997 0.0776096375143 12.2160053812 
5.91574985496 0.10325971058 12.6883111991 
5.91304673021 0.206487967305 12.6883111991 
5.90854243719 0.309653325901 12.6883111991 
6.32382680137 0.442204672771 13.5946191419 
5.89413638276 0.51566967698 12.6883111991 
11.7684780191 1.23691582998 25.3766223982 
12.1645662895 1.49361965618 26.282930341 
10.4626261508 1.47042495411 22.6576985699 
7.51346655308 1.19001517302 16.3135429703 
5.82676391635 1.02741480297 12.6883111991 
5.80794562791 1.12894928918 12.6883111991 
5.37397545838 1.14227275229 11.7820032563 
5.7650078616 1.33095577309 12.6883111991 
5.74090146298 1.43136623776 12.6883111991 
5.71504633312 1.53134069515 12.6883111991 
5.68745034772 1.63084869211 12.6883111991 
6.06227347797 1.85342134029 13.5946191419 
5.62706996199 1.8283442119 12.6883111991 
6.79308337281 2.3390440563 15.4072350275 
5.95696486058 2.16815590678 13.5946191419 
5.91821808137 2.27178897076 13.5946191419 
11.3634925467 4.59114471885 26.282930341 
11.6706572883 4.95389543733 27.1892382838 
11.5824224701 5.1568218187 27.1892382838 
8.42648366246 3.92933008222 19.9387747415 
5.69769822453 2.7789504005 13.5946191419 
5.64833110807 2.8779656148 13.5946191419 
6.71669214976 3.57132500924 16.3135429703 
5.5444508365 3.07333618531 13.5946191419 
6.22196523419 3.59224963384 15.4072350275 
4.70930678145 2.82963405869 11.7820032563 
5.01760608513 3.13534497126 12.6883111991 
5.3165599416 3.45261071852 13.5946191419 
4.90512763114 3.30854678621 12.6883111991 
4.84663850324 3.39364908811 12.6883111991 
5.12857826228 3.72612605717 13.5946191419 
4.38773169885 3.30638924006 11.7820032563 
4.66238664454 3.6426514644 12.6883111991 
9.52464309166 7.71289483039 26.282930341 
8.74109543258 7.33464116983 24.4703144554 
6.06012536174 5.26798017564 17.2198509131 
4.71099751845 4.24179593656 13.5946191419 
3.70900042219 3.45869445245 10.8756953135 
3.64807303407 3.5228986056 10.8756953135 
3.58603440944 3.58602965151 10.8756953135 
3.52290344584 3.6480683599 10.8756953135 
2.88224947794 3.09082986101 9.06307942794 
2.82786812472 3.1406612603 9.06307942794 
2.49536283924 2.87058238683 8.15677148515 
2.44488425582 2.91369523367 8.15677148515 
2.12769861176 2.62748492641 7.25046354235 
2.08151865739 2.66421817799 7.25046354235 
2.28904273501 3.03765736981 8.15677148515 
6.21022143623 8.54762219746 22.6576985699 
5.81769517474 8.30851542953 21.7513906271 
6.61710658861 9.81024648274 25.3766223982 
6.44488650867 9.92423667329 25.3766223982 
6.27070325717 10.0352038503 25.3766223982 
5.22395133596 8.69409789619 21.7513906271 
2.53571145113 4.39197209506 10.8756953135 
2.04889569444 3.69629783921 9.06307942794 
1.98407440051 3.7314930063 9.06307942794 
1.72678386538 3.38899637375 8.15677148515 
2.22316636814 4.55815562995 10.8756953135 
1.78606421019 3.83021747684 9.06307942794 
1.71894572873 3.86080520934 9.06307942794 
1.65130364063 3.89021690516 9.06307942794 
2.05810611539 5.09397668681 11.7820032563 
1.51453121535 3.94547671144 9.06307942794 
1.73453104836 4.7655695871 10.8756953135 
1.65109628423 4.79511548427 10.8756953135 
3.26491371047 10.048334886 22.6576985699 
2.96548701389 9.69963363016 21.7513906271 
3.14522274508 10.968650069 24.4703144554 
2.73455049614 10.2054362524 22.6576985699 
2.55602474064 10.251606364 22.6576985699 
2.2816515807 9.88286759262 21.7513906271 
2.46029513144 11.5747131076 25.3766223982 
2.01599463417 10.3713288036 22.6576985699 
1.83468309624 10.4049331307 22.6576985699 
1.65281269701 10.4353680197 22.6576985699 
1.64689149617 11.7181391038 25.3766223982 
1.23611238295 10.067225634 21.7513906271 
1.06022695229 10.0872654668 21.7513906271 
0.994520887629 11.3672617044 24.4703144554 
0.737021771987 10.5397103577 22.6576985699 
0.530847711985 10.128929188 21.7513906271 
0.41299162541 11.8260929125 25.3766223982 
0.162277593605 9.29617812821 19.9387747415 
1.23360008143e-05 9.29759440977 19.9387747415 
-0.147502659419 8.45107141708 18.1261588559 
-0.14748580136 4.22360500298 9.06307942794 
-0.619290972953 11.8170856961 25.3766223982 
-0.79595330823 11.3828892985 24.4703144554 
-0.994490723576 11.3672643434 24.4703144554 
-1.19272520793 11.3481768152 24.4703144554 
-1.18458209913 9.64776104267 20.8450826843 
-1.35277818656 9.62561785362 20.8450826843 
-1.25611660442 7.9308830282 17.2198509131 
-0.66047597489 3.74577767969 8.15677148515 
-2.01596711291 10.3713341532 22.6576985699 
-2.37239783057 11.161336792 24.4703144554 
-2.09148990931 9.05930084322 19.9387747415 
-2.04479802966 8.2012905173 18.1261588559 
-1.96885685887 7.34791932628 16.3135429703 
-1.16488653288 4.06246607965 9.06307942794 
-3.08902216149 10.1037932285 22.6576985699 
-3.2648870463 10.0483435497 22.6576985699 
-3.02698652658 8.7910530869 19.9387747415 
-3.61358000517 9.92827956212 22.6576985699 
-1.21161659653 3.1563845843 7.25046354235 
-3.95787038088 9.79611951569 22.6576985699 
-3.96310396221 9.33653108888 21.7513906271 
-3.43787096746 7.72161954141 18.1261588559 
-4.4651351159 9.57555554076 22.6576985699 
-1.48210284844 3.03877435287 7.25046354235 
-4.60473299299 9.03733588245 21.7513906271 
-3.96812899729 7.46299654241 18.1261588559 
-3.48310600615 6.28371556941 15.4072350275 
-1.90177484748 3.29398411784 8.15677148515 
-5.00626458764 8.33185710178 20.8450826843 
-4.25510199746 6.80961390404 17.2198509131 
-3.45260366453 5.31656452251 13.5946191419 
-2.12691875021 3.15329915629 8.15677148515 
-5.33286703338 7.616153295 19.9387747415 
-4.47134310311 6.1542998473 16.3135429703 
-2.54337186034 3.37518160442 9.06307942794 
-7.02510160829 8.99175499248 24.4703144554 
-5.31922909872 6.56872643109 18.1261588559 
-4.618100101 5.50365880705 15.4072350275 
-2.49535522188 2.87058900849 8.15677148515 
-5.65571958137 6.28133752859 18.1261588559 
-5.18803429705 5.56350751675 16.3135429703 
-2.64217032401 2.73605828117 8.15677148515 
-6.87321437936 6.87324173745 20.8450826843 
-5.77610083574 5.57793811962 17.2198509131 
-3.09082603685 2.88225357884 9.06307942794 
-7.53757801992 6.78689350016 21.7513906271 
-7.01697107466 6.09978513934 19.9387747415 
-3.88492265307 3.25985082893 10.8756953135 
-7.88244631016 6.38310629368 21.7513906271 
-9.32475395683 7.28532767291 25.3766223982 
-3.3751714808 2.54338529484 9.06307942794 
-9.57332763269 6.95546071043 25.3766223982 
-5.8851929617 4.12087522389 15.4072350275 
-3.50365632257 2.36325700171 9.06307942794 
-6.73429765438 4.3733247802 17.2198509131 
-3.58399840371 2.23954163279 9.06307942794 
-9.05634475528 5.44162799087 22.6576985699 
-6.22195570181 3.59226614437 15.4072350275 
-3.69629512074 2.04890059866 9.06307942794 
-7.46298074767 3.96815870286 18.1261588559 
-5.64832347111 2.87798060314 13.5946191419 
-3.79846056688 1.8526436799 9.06307942794 
-9.57553776773 4.46517323026 22.6576985699 
-3.86080292865 1.71895085123 9.06307942794 
-7.78042942844 3.3026176043 18.1261588559 
-5.09397395612 2.05811287405 11.7820032563 
-3.55092723177 1.36308280517 8.15677148515 
-6.75122032145 2.45726127599 15.4072350275 
-3.5963349702 1.23832698477 8.15677148515 
-9.64639733193 3.13432996084 21.7513906271 
-4.04151237315 1.23562495138 9.06307942794 
-10.9686458959 3.14523729822 24.4703144554 
-6.12325957451 1.640738422 13.5946191419 
-4.10064118907 1.02241533697 9.06307942794 
-7.41214842399 1.71124851992 16.3135429703 
-3.72044244963 0.790814085656 8.15677148515 
-9.12676699333 1.77408738742 19.9387747415 
-3.74577505071 0.660490884521 8.15677148515 
-10.0179511937 1.58671348089 21.7513906271 
-5.85906845937 0.823453521868 12.6883111991 
-4.19467666413 0.515052391704 9.06307942794 
-7.14514537593 0.75100357135 15.4072350275 
-4.21009643883 0.368346655427 9.06307942794 
-7.5885907535 0.530665744335 16.3135429703 
-4.2203868682 0.221192146248 9.06307942794 
-8.44720883179 0.295005225864 18.1261588559 
-4.22553541495 0.0737681489664 9.06307942794 
8.49869890079 0.148345215791 14.7224356236 
8.49481553116 0.296645244269 14.7224356236 
7.4897157907 0.392519039898 12.9903843738 
8.47928796682 0.592929072613 14.7224356236 
8.46764850195 0.740822621708 14.7224356236 
14.4205565704 1.5156602808 25.1147431226 
13.3993629527 1.64523349293 23.3826918728 
9.40753960255 1.32214233682 16.4544868734 
7.40765703567 1.17325660621 12.9903843738 
8.3708597059 1.47600714546 14.7224356236 
8.34382493073 1.62187386524 14.7224356236 
8.31424854994 1.76724654735 14.7224356236 
8.28213957279 1.91208090996 14.7224356236 
6.79206523055 1.69345057015 12.1243587488 
7.24443857699 1.94113974932 12.9903843738 
8.65134922143 2.48073226141 15.5884612485 
7.17228072512 2.1927843082 12.9903843738 
8.08397489298 2.62664029496 14.7224356236 
7.09138456875 2.44175730167 12.9903843738 
7.9873820153 2.90716663627 14.7224356236 
14.0036973344 5.37551079005 25.9807687475 
13.9077489872 5.6190900862 25.9807687475 
11.0460513697 4.68876620477 20.784614998 
10.962538821 4.88083209938 20.784614998 
8.15676523685 3.80355843583 15.5884612485 
6.74095144369 3.28777849861 12.9903843738 
6.6825451677 3.40492347987 12.9903843738 
6.62210332715 3.52103129021 12.9903843738 
6.55964433319 3.63606656213 12.9903843738 
6.06217473063 3.49999463782 12.1243587488 
7.28591847546 4.37781695349 14.7224356236 
6.36035772389 3.97438843677 12.9903843738 
6.29002642848 4.08478657351 12.9903843738 
5.38874191555 3.63474838723 11.2583331239 
5.73406198924 4.0150290202 12.1243587488 
5.66311680617 4.11449060872 12.1243587488 
11.5802107848 8.72630483458 25.1147431226 
11.820157423 9.23490843402 25.9807687475 
11.2686130555 9.1251322013 25.1147431226 
11.1076414126 9.32040665075 25.1147431226 
5.28296579046 4.59240649185 12.1243587488 
6.31672969938 5.68760188606 14.7224356236 
5.11947501598 4.77398161814 12.1243587488 
6.11438744914 5.9045876597 14.7224356236 
5.30330031463 5.30329327824 12.9903843738 
5.20993744609 5.39504083673 12.9903843738 
4.77398841063 5.11946868188 12.1243587488 
4.68391433758 5.20200647902 12.1243587488 
4.92044303706 5.66031396136 12.9903843738 
4.82090761464 5.74532536879 12.9903843738 
4.4052434529 5.44001425092 12.1243587488 
4.30963125457 5.51606774606 12.1243587488 
4.51361389611 5.9897582104 12.9903843738 
8.52288896806 11.7307306475 25.1147431226 
8.6036499174 12.287264276 25.9807687475 
8.38789739303 12.4355471376 25.9807687475 
7.8972701769 12.1607072837 25.1147431226 
7.94879375131 12.7207049014 25.9807687475 
7.21053796303 12.0003267456 24.2487174977 
3.75000287259 6.49518223591 12.9903843738 
3.39367024773 6.12233020828 12.1243587488 
3.0515680662 5.73915216807 11.2583331239 
2.26995489749 4.45502710004 8.66025624917 
1.97267246548 4.04456824889 7.79423062425 
1.90178462909 4.07838009515 7.79423062425 
1.83031749166 4.11094962943 7.79423062425 
1.75829282273 4.14226693074 7.79423062425 
1.68573256168 4.17232245955 7.79423062425 
1.61265881102 4.20110706067 7.79423062425 
1.71010425523 4.69845774004 8.66025624917 
1.62784447366 4.72758755269 8.66025624917 
4.32624874003 13.3147764366 24.2487174977 
3.6546563739 11.9537963596 21.6506406229 
3.85893470663 13.4576492244 24.2487174977 
2.97642902052 11.1081352023 19.9185893731 
2.90307356885 11.6435365434 20.784614998 
2.69942385693 11.6924287565 20.784614998 
2.5989082039 12.2268326547 21.6506406229 
2.28971990933 11.7795145113 20.784614998 
2.43108888544 13.7872951136 24.2487174977 
1.95544405775 12.346092465 21.6506406229 
1.6700902973 11.8832057032 20.784614998 
1.34057510981 10.9179976643 19.0525637482 
1.20209056966 11.4369915471 19.9185893731 
0.958726167287 10.9581320834 19.0525637482 
0.767334535503 10.9731951743 19.0525637482 
0.575709166581 10.9849157292 19.0525637482 
0.349007664879 9.99390016184 17.3205124983 
0.0785416721408 4.49931107857 7.79423062425 
1.6584923504e-05 12.4999904247 21.6506406229 
-0.244314724312 13.9978573372 24.2487174977 
-0.471124545974 13.4917664687 23.3826918728 
-0.706516384646 13.4814893607 23.3826918728 
-1.01144804987 14.4646690501 25.1147431226 
-1.0022742293 11.456231656 19.9185893731 
-1.46337765983 13.9232979406 24.2487174977 
-1.2186783072 9.92545565596 17.3205124983 
-0.695857818393 4.95133755619 8.66025624917 
-2.11184419998 13.3337854662 23.3826918728 
-2.34422900319 13.2948979373 23.3826918728 
-2.28968865133 11.7795205872 20.784614998 
-2.07910060712 9.78147164083 17.3205124983 
-2.24949402501 9.74369659967 17.3205124983 
-2.17728200375 8.73265818523 15.5884612485 
-1.16467808246 4.34666469149 7.79423062425 
-3.72108117427 12.9770287693 23.3826918728 
-3.36225468114 10.9975015729 19.9185893731 
-3.09015243433 9.51056279763 17.3205124983 
-2.93009747143 8.50966537014 15.5884612485 
-1.36807342996 3.75876982235 6.92820499933 
-4.83794298901 12.60333402 23.3826918728 
-4.49525730677 11.1262051541 20.784614998 
-4.29802225318 10.1255527915 19.0525637482 
-2.03367398097 4.56772720703 8.66025624917 
-5.07139681796 10.8756937112 20.784614998 
-5.2604312876 10.7855292894 20.784614998 
-6.35584061188 12.4740927459 24.2487174977 
-2.11261350242 3.9732647993 7.79423062425 
-6.06009643137 10.9327485958 21.6506406229 
-5.99997701924 10.392307499 20.784614998 
-5.92291574066 9.85742697236 19.9185893731 
-2.38462799872 3.81621779825 7.79423062425 
-6.80796371323 10.4833864136 21.6506406229 
-6.71029151533 9.94845551651 20.784614998 
-5.44895763094 7.78194850077 16.4544868734 
-2.93891649637 4.04508733232 8.66025624917 
-8.42538293656 11.1809043503 24.2487174977 
-6.15659516739 7.8801131172 17.3205124983 
-3.77591058627 4.66287937767 10.392307499 
-8.03482061481 9.57556360247 21.6506406229 
-9.18479896487 10.5659437673 24.2487174977 
-4.34933620975 4.83044612903 11.2583331239 
-9.54794965128 10.2389627001 24.2487174977 
-6.94656417313 7.19340621567 17.3205124983 
-8.83881040307 8.83884558501 21.6506406229 
-4.67569606765 4.51528532364 11.2583331239 
-10.6046005775 9.88899006358 25.1147431226 
-7.05985750171 6.3567502537 16.4544868734 
-4.90559977521 4.26439047418 11.2583331239 
-9.57553162072 8.03485872917 21.6506406229 
-5.82858043507 4.71991143287 12.9903843738 
-11.4261284867 8.92710847318 25.1147431226 
-9.58360355481 7.22179494925 20.784614998 
-6.0676134514 4.40839889603 12.9903843738 
-11.46810267 8.03008847207 24.2487174977 
-9.11939307299 6.15113685446 19.0525637482 
-5.8706812165 3.81248304701 12.1243587488 
-10.6005786291 6.62400885756 21.6506406229 
-8.57165512765 5.15039563214 17.3205124983 
-7.36120089515 4.25001302241 14.7224356236 
-11.8073424322 6.54495114369 23.3826918728 
-7.50503984826 3.99052204422 14.7224356236 
-12.0285650383 6.12889418267 23.3826918728 
-10.3361121695 5.04128779236 19.9185893731 
-6.79729595312 3.1696500671 12.9903843738 
-11.4192977805 5.08423040568 21.6506406229 
-6.44352270776 2.73513071792 12.1243587488 
-13.4441429405 5.43182275858 25.1147431226 
-9.33578871333 3.5836986334 17.3205124983 
-7.04768320662 2.56516573368 12.9903843738 
-13.7099976393 4.72076716396 25.1147431226 
-7.13291287317 2.3176427175 12.9903843738 
-14.3445498127 4.38560668096 25.9807687475 
-9.61260293172 2.75639468726 17.3205124983 
-8.21035788277 2.1999801695 14.7224356236 
-11.1583854962 2.78212697504 19.9185893731 
-6.82058135202 1.57467296606 12.1243587488 
-14.6721950477 3.11870931168 25.9807687475 
-7.3621946708 1.43108471146 12.9903843738 
-14.2796951697 2.51793243472 25.1147431226 
-9.87687189641 1.56436835079 17.3205124983 
-7.42700217955 1.04381628992 12.9903843738 
